0,0,0,0,0,0,0,0,0,0,0,0,0,0,0,0,0,0,0.514,0.514,0.514,0.513,0.513,0.513,0.513,0.513,0.514,0.514,0.514,0.515,0.516,0.516,0.516,0.517,0.517,0.517,0.517,0.517,0.517,0.518,0.518,0.518,0.518,0.519,0.518,0.518,0.518,0.517,0.517,0.516,0.516,0.516,0.516,0.516,0.515,0.515,0.513,0,0,0,0,0,0,0,0,0,0,0,0,0,0.504,0.506,0.507,0.508,0.509,0.509,0.51,0.51,0.51,0.51,0.51,0.509,0.509,0.509,0.509,0.509,0.508,0.508,0.507,0.506,0.506,0.505,0.504,0.503,0.501,0.501,0.5,0.499,0.498,0.498,0.498,0.497,0.497,0.497,0.497,0.497,0.497,0.498,0.498,0.499,0.499,0.5,0.501,0.501,0.502,0.503,0.504,0.505,0.506,0.506,0.508,0.509,0.51,0.511,0.512,0.513,0,0,0,0,0,0,0,0,0,0,0,0,0,0,0,0,0,0,0,0,0,0,0,0,0,0,0,0,0.297,0.298,0.298,0.298,0.298,0.299,0.299,0.3,0.3,0.301,0.302,0.303,0.304,0.305,0.306,0.307,0.308,0.308,0.309,0.31,0.31,0.311,0.312,0.312,0.313,0.314,0.314,0.315,0.315,0.316,0.316,0.317,0.317,0.318,0.318,0.319,0.319,0.32,0.321,0.321,0.322,0.322,0.323,0.323,0.324,0.324,0.325,0.325,0.325,0.326,0.327,0.327,0.327,0.328,0.328,0.329,0.329,0.33,0.33,0.331,0.331,0.332,0.332,0.333,0.334,0.334,0.335,0.335,0.336,0.336,0.337,0.337,0.338,0.339,0.339,0.34,0.341,0.341,0.341,0.342,0.342,0.342,0.342,0.343,0.343,0.343,0.343,0.343,0.343,0.343,0.344,0.344,0.344,0.344,0.345,0.345,0.345,0.345,0.345,0.346,0.346,0.346,0.346,0.346,0.346,0.346,0.347,0.347,0.347,0.348,0.348,0.348,0.349,0.349,0.349,0.349,0.348,0.348,0.348,0.348,0.348,0.349,0.349,0.349,0.349,0.349,0.349,0.349,0.349,0.349,0.348,0.348,0.348,0.347,0.347,0.346,0.346,0.345,0.344,0.344,0.343,0.343,0.342,0.342,0.341,0.341,0.34,0.339,0.339,0.339,0.338,0.338,0.338,0.338,0.338,0.338,0.338,0.338,0.339,0.339,0.339,0.34,0.34,0.341,0.342,0.342,0.343,0.343,0.344,0.344,0.344,0.344,0.344,0.344,0.343,0.343,0.343,0.343,0.342,0.342,0.341,0.341,0.34,0.34,0.339,0.339,0.338,0.337,0.337,0.336,0.336,0.336,0.335,0.335,0.335,0.335,0.334,0.334,0.334,0.333,0.333,0.333,0.332,0.331,0.331,0.33,0.33,0.329,0.329,0.328,0.328,0.327,0.327,0.326,0.326,0.325,0.325,0.324,0.324,0.323,0.323,0.322,0.322,0.321,0.321,0.32,0.319,0.319,0.318,0.318,0.317,0.317,0.316,0.316,0.316,0.315,0.315,0.314,0.313,0.313,0.312,0.311,0.31,0.309,0.308,0.307,0.306,0.306,0.305,0.304,0.303,0.302,0.301,0.3,0.299,0.298,0.297,0.296,0.295,0.294,0.293,0.292,0.292,0.291,0.29,0.289,0.289,0.288,0.287,0.286,0.286,0.285,0.284,0.283,0.283,0.282,0.282,0,0,0,0,0,0.477,0.476,0.476,0.475,0.474,0.474,0.473,0.473,0.471,0.471,0.47,0.469,0.468,0.468,0.467,0.467,0.466,0.467,0.467,0.468,0.469,0.47,0.47,0.471,0.471,0.473,0.473,0.473,0.473,0.473,0.473,0.473,0.473,0.473,0.473,0.472,0.471,0.47,0.469,0.469,0.468,0.467,0.466,0.466,0.466,0.465,0.465,0.465,0.465,0.464,0.464,0.464,0.464,0.464,0.463,0.463,0.463,0.463,0.463,0.463,0.463,0.463,0.463,0.464,0.464,0.464,0.464,0.464,0.463,0.463,0.463,0.463,0.462,0.462,0.462,0.461,0.461,0.461,0.461,0.461,0.461,0.461,0.461,0.461,0.461,0.461,0.46,0.46,0.46,0.46,0.46,0.459,0.459,0.459,0.458,0.458,0.457,0.455,0.453,0.45,0,0.445,0.442,0.44,0.438,0.437,0.436,0.435,0.435,0.434,0.433,0.433,0.432,0.432,0.431,0.43,0.429,0.429,0.428,0.427,0.427,0.426,0.425,0.425,0.424,0.424,0.424,0.423,0.423,0.423,0.422,0.422,0.421,0.421,0.42,0.419,0.418,0.418,0.417,0.417,0.417,0.417,0.417,0.417,0.417,0,0,0,0,0,0,0,0,0,0
0,0,0,0,0,0,0,0,0,0,0,0,0,0,0.511,0.511,0,0.511,0.511,0.511,0.511,0.51,0.51,0.51,0.51,0.51,0.511,0.511,0.511,0.512,0.513,0.513,0.514,0.514,0.514,0.514,0.515,0.515,0.516,0.516,0.516,0.517,0.517,0.517,0,0.515,0.514,0.513,0.513,0.512,0.512,0.512,0.512,0.512,0.511,0.51,0.508,0,0,0,0,0,0,0,0,0,0,0,0,0,0.5,0.502,0.503,0.504,0.505,0.506,0.506,0.506,0.506,0.506,0.506,0.506,0.505,0.505,0.505,0.505,0.504,0.504,0.503,0.503,0.502,0.501,0.5,0.499,0.498,0.497,0.496,0.496,0.496,0.495,0.495,0.495,0.495,0.495,0.495,0.495,0.495,0.495,0.496,0.496,0.497,0.498,0.498,0.499,0.5,0.501,0.502,0.503,0.504,0.506,0.506,0.508,0.509,0,0,0,0,0,0,0,0,0,0,0,0,0,0,0,0,0,0,0,0,0,0,0,0,0,0,0,0,0,0,0,0.297,0.297,0.297,0.298,0.298,0.299,0.299,0.3,0.3,0.301,0.302,0.303,0.304,0.305,0.306,0.307,0.308,0.308,0.309,0.31,0.311,0.311,0.312,0.313,0.313,0.314,0.314,0.315,0.315,0.316,0.316,0.317,0.317,0.318,0.318,0.319,0.319,0.32,0.321,0.321,0.322,0.322,0.322,0.323,0.323,0.324,0.324,0.325,0.325,0.326,0.326,0.327,0.327,0.328,0.328,0.328,0.329,0.329,0.33,0.331,0.331,0.332,0.333,0.333,0.334,0.334,0.335,0.335,0.336,0.336,0.337,0.337,0.338,0.339,0.339,0.34,0.341,0.341,0.341,0.342,0.342,0.342,0.342,0.342,0.342,0.343,0.343,0.343,0.343,0.343,0.343,0.344,0.344,0.344,0.344,0.345,0.345,0.345,0.345,0.346,0.346,0.346,0.346,0.346,0.346,0.347,0.347,0.347,0.347,0.348,0.348,0.348,0.348,0.348,0.349,0.348,0.348,0.348,0.348,0.348,0.348,0.348,0.349,0.349,0.349,0.349,0.349,0.349,0.349,0.349,0.348,0.348,0.347,0.347,0.346,0.346,0.345,0.344,0.344,0.343,0.343,0.342,0.342,0.341,0.341,0.34,0.34,0.339,0.339,0.339,0.338,0.338,0.338,0.338,0.338,0.338,0.338,0.338,0.338,0.339,0.339,0.339,0.34,0.341,0.341,0.342,0.343,0.343,0.343,0.344,0.344,0.344,0.344,0.344,0.343,0.343,0.343,0.343,0.342,0.342,0.341,0.341,0.34,0.34,0.339,0.339,0.338,0.338,0.337,0.336,0.336,0.336,0.335,0.335,0.335,0.335,0.335,0.334,0.334,0.334,0.333,0.333,0.332,0.332,0.331,0.331,0.33,0.329,0.329,0.328,0.328,0.328,0.327,0.327,0.326,0.325,0.325,0.324,0.324,0.323,0.323,0.322,0.322,0.321,0.321,0.32,0.319,0.319,0.318,0.318,0.317,0.317,0.316,0.316,0.316,0.315,0.315,0.314,0.313,0.313,0.312,0.311,0.31,0.31,0.308,0.308,0.307,0.306,0.305,0.304,0.303,0.302,0.301,0.3,0.299,0.298,0.297,0.296,0.295,0.294,0.293,0.292,0.292,0.291,0.29,0.289,0.289,0.288,0.287,0.286,0.285,0.285,0.284,0.283,0.282,0.282,0.281,0,0,0.279,0,0,0,0,0,0.474,0.473,0.473,0.472,0.471,0.47,0.469,0.468,0.467,0.466,0.466,0.465,0.465,0.465,0.465,0.465,0.466,0.467,0.468,0.468,0.469,0.469,0.469,0.47,0.47,0.469,0.47,0.47,0.47,0.47,0.469,0.469,0.469,0.468,0.467,0.466,0.466,0.465,0.464,0.464,0.463,0.463,0.463,0.462,0.462,0.462,0.462,0.462,0.462,0.462,0.462,0.462,0.462,0.462,0.462,0.462,0.462,0.461,0.461,0.461,0.462,0.462,0.462,0.462,0.461,0.461,0.461,0.461,0.461,0.46,0.46,0.46,0.46,0.46,0.459,0.459,0.459,0.459,0.459,0.459,0.459,0.459,0.458,0.458,0.458,0.458,0.458,0.457,0.457,0.457,0.457,0.457,0.456,0.456,0.454,0.452,0.449,0,0.444,0.442,0.439,0.438,0.437,0.436,0.435,0.435,0.434,0.433,0.433,0.432,0.431,0.431,0.43,0.43,0.429,0.428,0.428,0.427,0.426,0.426,0.425,0.425,0.425,0.424,0.424,0.424,0.423,0.423,0.422,0.421,0.421,0.42,0.419,0.419,0.418,0.417,0.417,0.417,0.416,0.416,0.417,0.417,0.417,0,0,0,0,0,0,0,0,0
0,0,0,0,0,0,0,0,0,0,0,0,0,0,0.508,0.508,0.508,0.508,0.508,0.508,0.507,0.507,0.507,0.507,0.507,0.507,0.508,0.508,0.509,0.509,0.51,0.51,0.511,0.511,0.511,0.512,0.512,0.512,0.513,0.514,0.514,0,0,0,0,0,0.51,0.509,0.508,0.508,0.508,0.507,0.507,0.507,0.506,0.505,0.502,0,0,0,0,0,0,0,0,0,0,0,0,0,0.497,0.498,0.499,0.501,0.501,0.502,0.502,0.502,0.502,0.502,0.502,0.502,0,0.501,0.501,0.501,0.5,0.5,0.499,0.499,0.498,0.497,0.496,0.495,0.495,0.494,0.494,0.494,0.493,0.493,0.493,0.493,0.493,0.493,0.493,0.493,0.493,0.493,0.494,0.494,0.495,0.495,0.497,0.497,0.499,0.5,0.501,0.502,0.504,0.504,0.506,0,0,0,0,0,0,0,0,0,0,0,0,0,0,0,0,0,0,0,0,0,0,0,0,0,0,0,0.296,0,0,0,0,0,0.297,0.297,0.297,0.297,0.298,0.298,0.299,0.299,0.3,0.301,0.302,0.303,0.304,0.305,0.306,0.307,0.308,0.309,0.31,0.31,0.311,0.311,0.312,0.313,0.313,0.314,0.314,0.315,0.315,0.316,0.316,0.317,0.317,0.318,0.318,0.319,0.319,0.32,0.32,0.321,0.321,0.322,0.322,0.323,0.323,0.323,0.324,0.324,0.325,0.325,0.326,0.327,0.327,0.327,0.328,0.329,0.329,0.33,0.33,0.331,0.331,0.332,0.333,0.333,0.334,0.334,0.335,0.335,0.336,0.336,0.337,0.337,0.338,0.339,0.339,0.34,0.34,0.341,0.341,0.342,0.342,0.342,0.342,0.342,0.342,0.343,0.343,0.343,0.343,0.343,0.343,0.343,0.344,0.344,0.344,0.345,0.345,0.345,0.345,0.346,0.346,0.346,0.346,0.346,0.346,0.346,0.347,0.347,0.347,0.347,0.348,0.348,0.348,0.348,0.348,0.348,0.348,0.348,0.348,0.348,0.348,0.348,0.349,0.349,0.349,0.349,0.349,0.349,0.349,0.348,0.348,0.347,0.347,0.346,0.346,0.345,0.345,0.344,0.344,0.343,0.343,0.342,0.341,0.341,0.341,0.34,0.34,0.339,0.339,0.339,0.339,0.338,0.338,0.338,0.338,0.338,0.338,0.338,0.338,0.338,0.339,0.339,0.34,0.34,0.341,0.342,0.342,0.343,0.343,0.343,0.344,0.344,0.344,0.344,0.343,0.343,0.343,0.342,0.342,0.342,0.341,0.341,0.34,0.34,0.339,0.339,0.338,0.338,0.337,0.336,0.336,0.335,0.335,0.335,0.335,0.335,0.335,0.335,0.335,0.334,0.334,0.333,0.333,0.332,0.331,0.331,0.33,0.33,0.329,0.328,0.328,0.328,0.327,0.327,0.326,0.326,0.325,0.325,0.324,0.324,0.323,0.322,0.322,0.322,0.321,0.32,0.32,0.319,0.318,0.318,0.317,0.317,0.316,0.316,0.316,0.315,0.315,0.314,0.314,0.313,0.312,0.311,0.31,0.31,0.309,0.308,0.307,0.306,0.305,0.304,0.303,0.302,0.301,0.3,0.299,0.298,0.297,0.296,0.295,0.294,0.293,0.293,0.292,0.291,0.29,0.289,0.288,0.287,0.286,0.286,0.285,0.284,0.284,0.283,0.282,0.282,0.281,0.28,0.279,0.279,0.278,0,0,0,0.474,0.473,0.472,0.471,0.471,0.469,0.468,0.467,0.466,0.465,0.464,0.464,0.463,0.463,0.463,0.463,0.464,0.465,0.465,0.465,0.466,0.466,0.466,0.466,0.467,0.467,0.466,0.466,0.466,0.466,0.466,0,0.466,0.465,0.465,0.464,0.464,0.463,0.462,0.462,0.461,0.461,0.46,0.46,0.46,0.46,0.46,0.46,0.46,0.46,0.46,0.46,0.46,0.46,0.46,0.46,0.46,0.46,0.46,0.46,0.46,0.46,0.46,0.46,0.46,0.459,0.459,0.459,0.458,0.458,0.458,0.458,0.458,0.457,0.458,0.458,0.458,0.458,0.458,0.457,0.457,0.457,0.457,0.457,0.457,0.456,0.456,0.456,0.456,0.456,0.456,0.456,0.455,0.455,0.454,0.453,0.451,0.449,0,0.444,0.442,0.44,0.438,0.437,0.436,0.435,0.435,0.434,0.434,0.433,0.432,0.432,0.431,0.431,0.43,0.429,0.429,0.428,0.428,0.427,0.427,0.426,0.425,0.425,0.425,0.424,0.424,0.424,0.423,0.423,0.422,0.421,0.42,0.419,0.419,0.418,0.417,0.417,0.416,0.416,0.416,0.416,0.416,0.416,0.416,0.417,0,0,0,0,0,0,0
0,0,0,0,0,0,0,0,0,0,0,0,0,0,0.504,0.505,0.504,0.505,0.505,0.504,0.504,0.504,0.504,0.504,0.504,0.504,0.505,0.505,0.506,0.506,0.507,0.507,0.508,0.509,0.509,0.509,0.509,0.51,0.51,0.511,0.511,0,0,0,0,0,0,0.504,0.503,0.503,0.502,0.503,0.503,0.503,0.501,0.499,0.497,0,0,0,0,0,0,0,0,0,0,0.49,0.491,0.492,0.493,0.495,0.495,0.497,0.497,0.498,0.498,0.498,0.498,0.498,0.498,0.498,0.497,0.497,0.497,0.497,0.497,0.496,0.496,0.495,0.495,0.494,0.493,0.493,0.493,0.493,0.492,0.492,0.491,0.491,0.491,0.491,0.491,0.491,0.491,0.491,0.491,0.491,0.492,0.493,0.493,0.494,0.495,0.496,0.497,0.499,0.5,0.501,0.503,0,0,0,0,0,0,0,0,0,0,0,0,0,0,0,0,0,0,0,0,0,0,0,0,0,0,0,0.295,0.296,0.296,0.296,0.296,0.296,0.296,0.296,0.296,0.297,0.297,0.297,0.298,0.298,0.299,0.299,0.3,0.301,0.302,0.303,0.304,0.306,0.306,0.307,0.308,0.309,0.31,0.31,0.311,0.312,0.312,0.313,0.314,0.314,0.314,0.315,0.315,0.315,0.316,0.316,0.317,0.317,0.318,0.319,0.319,0.32,0.32,0.321,0.321,0.322,0.322,0.322,0.323,0.323,0.324,0.324,0.325,0.325,0.326,0.326,0.327,0.327,0.328,0.329,0.329,0.33,0.331,0.331,0.332,0.332,0.333,0.334,0.334,0.335,0.335,0.335,0.336,0.336,0.337,0.337,0.338,0.339,0.339,0.34,0.34,0.341,0.341,0.341,0.342,0.342,0.342,0.342,0.342,0.343,0.343,0.343,0.343,0.343,0.343,0.343,0.344,0.344,0.344,0.344,0.345,0.345,0.345,0.346,0.346,0.346,0.346,0.346,0.346,0.346,0.346,0.347,0.347,0.347,0.347,0.348,0.348,0.348,0.348,0.348,0.348,0.348,0.348,0.348,0.348,0.348,0.348,0.349,0.349,0.349,0.349,0.349,0.349,0.348,0.348,0.347,0.347,0.346,0.345,0.345,0.344,0.343,0.343,0.343,0.342,0.342,0.341,0.341,0.34,0.34,0.34,0.339,0.339,0.339,0.339,0.339,0.338,0.338,0.338,0.338,0.338,0.338,0.338,0.338,0.339,0.339,0.339,0.34,0.341,0.341,0.342,0.342,0.343,0.343,0.343,0.344,0.344,0.343,0.343,0.343,0.343,0.342,0.342,0.342,0.341,0.341,0.34,0.34,0.34,0.339,0.338,0.338,0.337,0.337,0.336,0.336,0.335,0.335,0.335,0.335,0.335,0.335,0.335,0.335,0.334,0.334,0.333,0.333,0.332,0.331,0.33,0.33,0.329,0.328,0.328,0.328,0.327,0.327,0.326,0.326,0.325,0.325,0.324,0.324,0.323,0.323,0.322,0.322,0.321,0.321,0.32,0.319,0.319,0.318,0.317,0.317,0.316,0.316,0.316,0.315,0.315,0.314,0.314,0.313,0.312,0.311,0.311,0.31,0.309,0.308,0.307,0.306,0.305,0.304,0.303,0.301,0.301,0.3,0.299,0.298,0.297,0.296,0.295,0.295,0.294,0.293,0.292,0.291,0.29,0.289,0.288,0.287,0.286,0.285,0.285,0.284,0.283,0.283,0.282,0.281,0.28,0.28,0.279,0.278,0.278,0.277,0,0,0,0.472,0.471,0.471,0.469,0.468,0.467,0.465,0.464,0.464,0.463,0.462,0.462,0.462,0.462,0.462,0.462,0.463,0.463,0.463,0.463,0.464,0.464,0.464,0.464,0.463,0.463,0.463,0.463,0.463,0.463,0.463,0.463,0.462,0.462,0.461,0.461,0.46,0.46,0.459,0.458,0.458,0.458,0.458,0.457,0.457,0.457,0.457,0.457,0.457,0.458,0.458,0.458,0.458,0.458,0.458,0.458,0.458,0.457,0.457,0.457,0.457,0.457,0.457,0.457,0.457,0.457,0.456,0.456,0.456,0.456,0.456,0.456,0.456,0.456,0.456,0.456,0.456,0.456,0.456,0.456,0.456,0.456,0.455,0.455,0.455,0.455,0.455,0.455,0.454,0.454,0.454,0.453,0.453,0.452,0.451,0.449,0.447,0.445,0.443,0.442,0.44,0.438,0.437,0.436,0.436,0.435,0.434,0.434,0.433,0.432,0.432,0.431,0.431,0.43,0.43,0.429,0.428,0.428,0.428,0.427,0.426,0.426,0.425,0.425,0.425,0.424,0.424,0.423,0.423,0.422,0.421,0.421,0.42,0.419,0.418,0.417,0.417,0.416,0.416,0.415,0.415,0.415,0,0,0,0,0,0,0,0,0,0
0,0,0,0,0,0,0,0,0,0,0,0,0,0,0,0.501,0.501,0.501,0.501,0.501,0.501,0.501,0.501,0.501,0.501,0.501,0.502,0.502,0.503,0.504,0.504,0.505,0.505,0.506,0.506,0.507,0.507,0.507,0.508,0.508,0,0,0,0,0,0,0,0,0.499,0.499,0.498,0.499,0.498,0.497,0.497,0.495,0,0,0.49,0.488,0.486,0,0,0,0,0.485,0.486,0.488,0.489,0.49,0.491,0.492,0.492,0.493,0.494,0.494,0.494,0.494,0.495,0.494,0.494,0.494,0.494,0.494,0.493,0.493,0.493,0.493,0.493,0.492,0.491,0.491,0.491,0.491,0.49,0.49,0.49,0.49,0.49,0.49,0.49,0.49,0.49,0.49,0.489,0.49,0.49,0.49,0.491,0.491,0.492,0.493,0.494,0.495,0.496,0.498,0,0,0,0,0,0,0,0,0,0,0,0,0,0,0,0,0,0,0,0,0,0,0,0,0,0,0,0,0,0.294,0.294,0.295,0.295,0.295,0.295,0.295,0.295,0.296,0.296,0.296,0.296,0.297,0.297,0.298,0.299,0.299,0.3,0.301,0.302,0.304,0.305,0.306,0.307,0.307,0.308,0.309,0.31,0.311,0.311,0.312,0.313,0.313,0.314,0.314,0.314,0.315,0.315,0.316,0.316,0.316,0.317,0.317,0.318,0.318,0.319,0.32,0.32,0.321,0.321,0.322,0.322,0.322,0.323,0.323,0.323,0.324,0.324,0.325,0.325,0.326,0.327,0.327,0.328,0.329,0.329,0.33,0.331,0.331,0.332,0.333,0.333,0.334,0.335,0.335,0.335,0.336,0.336,0.337,0.337,0.338,0.338,0.339,0.339,0.34,0.34,0.341,0.341,0.341,0.342,0.342,0.342,0.342,0.342,0.343,0.343,0.343,0.343,0.343,0.343,0.343,0.343,0.344,0.344,0.344,0.345,0.345,0.345,0.346,0.346,0.346,0.346,0.346,0.346,0.346,0.346,0.347,0.347,0.347,0.347,0.348,0.348,0.348,0.348,0.348,0.348,0.348,0.348,0.348,0.348,0.348,0.348,0.349,0.349,0.349,0.349,0.349,0.348,0.348,0.347,0.347,0.346,0.346,0.345,0.344,0.344,0.343,0.343,0.342,0.342,0.342,0.341,0.341,0.34,0.34,0.34,0.339,0.339,0.339,0.339,0.339,0.338,0.338,0.338,0.338,0.338,0.338,0.338,0.338,0.339,0.339,0.339,0.339,0.34,0.341,0.341,0.342,0.342,0.343,0.343,0.343,0.343,0.343,0.343,0.342,0.342,0.342,0.342,0.341,0.341,0.341,0.34,0.34,0.34,0.339,0.339,0.338,0.337,0.337,0.336,0.336,0.336,0.335,0.335,0.335,0.335,0.335,0.335,0.335,0.335,0.334,0.333,0.333,0.332,0.331,0.33,0.33,0.329,0.328,0.328,0.328,0.327,0.327,0.327,0.326,0.325,0.325,0.324,0.324,0.324,0.323,0.323,0.322,0.322,0.321,0.32,0.319,0.319,0.318,0.317,0.317,0.316,0.316,0.316,0.315,0.315,0.314,0.314,0.313,0.312,0.311,0.311,0.31,0.309,0.308,0.307,0.306,0.305,0.303,0.302,0.301,0.3,0.299,0.298,0.298,0.297,0.296,0.295,0.294,0.294,0.293,0.292,0.291,0.289,0.288,0.287,0.286,0.285,0.285,0.284,0.283,0.283,0.282,0.281,0.281,0.28,0.279,0.279,0.278,0.278,0.277,0.276,0,0,0,0,0,0.469,0.467,0.466,0.464,0.463,0.462,0.462,0.461,0.46,0.46,0.46,0.46,0.46,0.46,0.46,0.46,0.46,0.461,0.461,0.46,0.461,0.461,0.46,0.46,0.46,0.459,0.459,0.459,0.459,0.459,0.458,0.458,0.457,0.457,0.457,0.456,0.456,0.456,0.455,0.455,0.455,0.455,0.455,0.455,0.455,0.456,0.456,0.456,0.456,0.456,0.456,0.456,0.456,0.456,0.456,0.455,0.455,0.455,0.455,0.455,0.455,0.455,0.455,0.454,0.454,0.454,0.454,0.454,0.454,0.454,0.454,0.454,0.454,0.454,0.454,0.454,0.454,0.454,0.454,0.454,0.454,0.454,0.454,0.453,0.453,0.453,0.452,0.452,0.451,0.451,0.45,0.449,0.448,0.446,0.445,0.443,0.441,0.44,0.439,0.438,0.437,0.436,0.435,0.434,0.434,0.433,0.432,0.432,0.431,0.431,0.43,0.43,0.429,0.429,0.428,0.428,0.427,0.427,0.426,0.426,0.425,0.425,0.425,0.424,0.424,0.423,0.422,0.421,0.421,0.419,0.419,0.418,0.417,0.416,0.415,0.415,0.414,0.414,0.413,0.414,0,0,0,0,0,0,0,0,0
0,0,0,0,0,0,0,0,0,0,0,0,0,0,0,0.499,0.499,0.499,0.499,0.499,0.499,0.499,0.499,0.498,0.499,0.499,0.499,0.499,0.5,0.5,0.501,0.502,0.503,0.504,0.504,0.504,0.504,0.504,0.505,0.505,0,0,0,0,0,0,0,0.495,0.495,0.495,0.495,0.495,0.495,0.494,0.493,0.491,0.491,0,0.488,0.486,0.485,0.483,0.483,0.483,0.484,0.484,0.484,0.486,0.487,0.487,0.488,0.489,0.489,0.49,0.49,0.491,0.491,0.491,0.491,0.491,0.49,0.49,0.49,0.49,0.49,0.49,0.49,0.49,0.49,0.49,0.489,0.489,0.489,0.488,0.488,0.488,0.488,0.488,0.488,0.488,0.488,0.488,0.488,0.488,0.488,0.488,0.488,0.489,0.49,0.49,0.491,0.492,0.493,0.494,0.496,0,0,0,0,0,0,0,0,0,0,0,0,0,0,0,0,0,0,0,0,0,0,0,0,0,0,0,0,0,0,0.294,0.294,0.294,0.294,0.294,0.294,0.295,0.295,0.295,0.296,0.296,0.296,0.297,0.297,0.298,0.299,0.299,0.3,0.301,0.303,0.304,0.305,0.306,0.307,0.308,0.309,0.31,0.31,0.311,0.311,0.312,0.313,0.313,0.314,0.314,0.315,0.315,0.315,0.316,0.316,0.316,0.317,0.317,0.318,0.318,0.319,0.319,0.32,0.32,0.321,0.321,0.322,0.322,0.322,0.323,0.323,0.324,0.324,0.325,0.326,0.326,0.327,0.327,0.328,0.329,0.329,0.33,0.331,0.331,0.332,0.333,0.333,0.334,0.335,0.335,0.335,0.336,0.336,0.337,0.337,0.338,0.338,0.339,0.339,0.34,0.34,0.341,0.341,0.342,0.342,0.342,0.342,0.342,0.343,0.343,0.343,0.343,0.343,0.343,0.343,0.343,0.343,0.344,0.344,0.344,0.345,0.345,0.345,0.346,0.346,0.346,0.346,0.346,0.346,0.346,0.347,0.347,0.347,0.347,0.347,0.347,0.348,0.348,0.348,0.348,0.348,0.348,0.348,0.348,0.348,0.348,0.348,0.349,0.349,0.349,0.348,0.348,0.348,0.348,0.347,0.346,0.346,0.345,0.345,0.344,0.343,0.343,0.343,0.342,0.342,0.341,0.341,0.341,0.34,0.34,0.34,0.339,0.339,0.339,0.339,0.339,0.339,0.339,0.338,0.338,0.338,0.338,0.338,0.338,0.339,0.339,0.339,0.339,0.34,0.34,0.341,0.341,0.342,0.342,0.342,0.343,0.343,0.342,0.342,0.342,0.342,0.342,0.341,0.341,0.341,0.341,0.34,0.34,0.34,0.339,0.339,0.338,0.337,0.337,0.337,0.336,0.336,0.336,0.336,0.335,0.335,0.335,0.335,0.335,0.335,0.334,0.333,0.333,0.332,0.331,0.33,0.33,0.329,0.328,0.328,0.328,0.327,0.327,0.326,0.326,0.325,0.325,0.325,0.324,0.324,0.323,0.323,0.322,0.322,0.321,0.32,0.319,0.319,0.318,0.317,0.317,0.316,0.316,0.316,0.315,0.315,0.314,0.314,0.313,0.312,0.312,0.311,0.31,0.309,0.308,0.307,0.306,0.305,0.303,0.302,0.301,0.3,0.299,0.298,0.297,0.296,0.296,0.295,0.294,0.293,0.292,0.291,0.29,0.289,0.288,0.286,0.285,0.285,0.284,0.283,0.283,0.282,0.282,0.281,0.28,0.28,0.279,0.278,0.278,0.277,0.277,0.276,0.275,0,0,0,0.469,0,0,0.464,0.463,0.462,0.461,0.46,0.459,0.458,0.458,0.457,0.458,0.458,0.457,0.457,0.457,0.457,0.457,0.457,0.457,0.457,0.456,0.457,0.456,0.456,0.456,0.455,0.456,0.455,0.455,0.455,0.454,0.454,0.454,0.454,0.453,0.453,0.453,0.453,0.453,0.453,0.453,0.453,0.453,0.453,0.453,0.453,0.454,0.454,0.454,0.454,0.454,0.454,0.454,0.453,0.453,0.453,0.453,0.453,0.453,0.453,0.452,0.452,0.452,0.452,0.452,0.452,0.452,0.452,0.452,0.452,0.452,0.452,0.452,0.452,0.452,0.452,0.452,0.452,0.452,0.451,0.451,0.451,0.451,0.45,0.45,0.45,0.449,0.449,0.449,0.447,0.447,0.446,0.445,0.443,0.442,0.441,0.439,0.438,0.438,0.437,0.436,0.435,0.434,0.434,0.433,0.433,0.432,0.431,0.431,0.43,0.43,0.429,0.429,0.428,0.428,0.428,0.427,0.427,0.426,0.426,0.425,0.425,0.424,0.424,0.423,0.422,0.421,0.421,0.42,0.419,0.418,0.417,0.416,0.415,0.414,0.413,0.413,0.413,0.412,0.412,0,0,0,0,0,0,0,0
0,0,0,0,0,0,0,0,0,0,0,0,0,0,0,0,0.496,0.497,0.497,0.496,0.496,0.496,0.496,0.495,0.495,0.495,0.496,0.496,0.496,0.497,0.497,0.498,0.499,0.499,0.5,0.501,0.501,0.502,0.502,0.502,0,0,0,0,0,0,0.493,0.493,0.492,0.492,0.492,0.492,0.491,0.491,0.49,0.49,0.488,0,0.486,0.485,0.484,0.483,0.483,0.483,0.483,0.483,0.484,0.484,0.484,0.485,0.486,0.486,0.486,0.486,0.487,0.487,0.487,0.487,0.487,0.487,0.487,0.487,0.487,0.487,0.487,0.487,0.487,0.487,0.487,0.487,0.486,0.486,0.486,0.486,0.486,0.486,0.486,0.486,0.486,0.486,0.486,0.486,0.486,0.486,0.487,0.487,0.488,0.488,0.488,0.49,0.491,0.491,0.493,0.494,0.496,0,0,0,0,0,0,0,0,0,0,0,0,0,0,0,0,0,0,0,0,0,0,0,0,0,0,0,0,0,0,0.293,0.293,0.293,0.293,0.294,0.294,0.294,0.295,0.295,0.295,0.296,0.296,0.297,0.297,0.298,0.299,0.299,0.3,0.302,0.303,0.304,0.305,0.306,0.307,0.308,0.309,0.31,0.31,0.311,0.311,0.312,0.313,0.313,0.314,0.314,0.315,0.315,0.315,0.316,0.316,0.316,0.317,0.317,0.318,0.318,0.319,0.319,0.32,0.32,0.321,0.321,0.322,0.322,0.323,0.323,0.324,0.324,0.325,0.325,0.326,0.327,0.327,0.328,0.328,0.329,0.33,0.33,0.331,0.332,0.332,0.333,0.334,0.335,0.335,0.335,0.336,0.336,0.337,0.337,0.338,0.338,0.339,0.339,0.34,0.34,0.34,0.341,0.341,0.342,0.342,0.342,0.342,0.342,0.343,0.343,0.343,0.343,0.343,0.343,0.343,0.343,0.343,0.344,0.344,0.344,0.345,0.345,0.345,0.346,0.346,0.346,0.346,0.346,0.346,0.346,0.346,0.347,0.347,0.347,0.347,0.347,0.347,0.348,0.347,0.348,0.348,0.348,0.348,0.348,0.348,0.348,0.348,0.348,0.348,0.348,0.348,0.348,0.347,0.347,0.347,0.346,0.345,0.345,0.344,0.344,0.343,0.343,0.342,0.342,0.342,0.341,0.341,0.341,0.34,0.34,0.34,0.34,0.339,0.339,0.339,0.339,0.339,0.339,0.338,0.338,0.338,0.338,0.338,0.338,0.338,0.339,0.339,0.339,0.339,0.34,0.34,0.341,0.341,0.341,0.342,0.342,0.342,0.342,0.342,0.342,0.342,0.341,0.341,0.341,0.34,0.34,0.34,0.34,0.34,0.339,0.339,0.338,0.338,0.337,0.337,0.336,0.336,0.336,0.336,0.336,0.335,0.335,0.335,0.335,0.335,0.334,0.333,0.332,0.331,0.331,0.33,0.329,0.329,0.328,0.328,0.328,0.327,0.327,0.326,0.326,0.325,0.325,0.324,0.324,0.324,0.323,0.323,0.322,0.322,0.321,0.32,0.319,0.319,0.318,0.317,0.317,0.316,0.316,0.316,0.315,0.315,0.314,0.314,0.313,0.312,0.312,0.311,0.31,0.309,0.308,0.307,0.306,0.305,0.303,0.302,0.301,0.3,0.299,0.298,0.297,0.296,0.295,0.295,0.294,0.293,0.292,0.291,0,0,0,0,0.285,0.284,0.283,0.283,0.282,0.282,0.281,0.28,0.28,0.279,0.279,0.278,0.278,0.277,0.277,0.276,0.275,0.275,0.274,0.273,0,0,0,0,0.462,0.461,0.461,0.459,0.457,0.457,0,0.456,0.455,0.455,0.455,0.454,0.454,0.454,0.454,0.454,0.453,0.453,0.453,0.453,0.453,0.453,0.452,0.452,0.452,0.452,0.452,0.451,0.451,0.451,0.451,0.451,0.451,0.451,0.45,0.45,0.45,0.45,0.45,0.45,0.45,0.45,0.451,0.451,0.451,0.451,0.451,0.451,0.451,0.451,0.451,0.451,0.451,0.451,0.451,0.451,0.451,0.45,0.45,0.45,0.45,0.45,0.45,0.45,0.45,0.45,0.45,0.45,0.45,0.45,0.45,0.45,0.45,0.449,0.449,0.449,0.449,0.449,0.449,0.449,0.448,0.448,0.448,0.448,0.448,0.447,0.447,0.446,0.446,0.445,0.444,0.443,0.442,0.44,0.439,0.438,0.438,0.437,0.436,0.435,0.434,0.434,0.433,0.433,0.432,0.431,0.431,0.43,0.43,0.43,0.429,0.429,0.428,0.428,0.427,0.427,0.427,0.426,0.425,0.425,0.425,0.424,0.423,0.422,0.421,0.421,0.419,0.418,0.417,0.416,0.415,0.414,0.413,0.413,0.412,0.411,0.41,0,0,0,0,0,0,0,0,0
0,0,0,0,0,0,0,0,0,0,0,0,0,0,0.495,0.495,0.495,0.495,0.494,0.494,0.494,0.493,0.493,0.493,0.493,0.493,0.493,0.493,0.493,0.493,0.494,0.495,0.496,0.497,0.497,0.498,0.498,0.499,0.499,0.499,0.499,0,0.495,0.493,0,0.49,0.49,0.49,0.489,0.489,0.489,0.489,0.489,0.489,0.488,0.487,0.487,0.486,0.484,0.484,0.483,0.482,0.482,0.482,0.482,0.482,0.482,0.483,0.483,0.483,0.484,0.484,0.484,0.484,0.484,0.484,0.484,0.484,0.484,0.484,0.484,0.484,0.484,0.484,0.484,0.484,0.484,0.484,0.484,0.484,0.484,0.484,0.484,0.484,0.484,0.484,0.484,0.484,0.484,0.485,0.485,0.485,0.485,0.485,0.485,0.486,0.486,0.486,0.488,0.488,0.49,0,0,0,0,0,0,0,0,0,0,0,0,0,0,0,0,0,0,0,0,0,0,0,0,0,0,0,0,0,0,0.292,0.292,0.292,0.292,0.292,0.293,0.293,0.293,0.293,0.293,0.294,0.294,0.295,0.295,0.296,0.296,0.297,0.298,0.298,0.299,0.3,0.3,0.302,0.303,0.304,0.305,0.306,0.307,0.308,0.309,0.31,0.31,0.311,0.312,0.312,0.313,0.313,0.314,0.314,0.314,0.315,0.315,0.315,0.316,0.316,0.317,0.317,0.318,0.318,0.319,0.32,0.32,0.32,0.321,0.321,0.322,0.322,0.323,0.323,0.324,0.325,0.325,0.326,0.326,0.327,0.328,0.328,0.329,0.329,0.33,0.331,0.331,0.332,0.332,0.333,0.334,0.335,0.335,0.336,0.336,0.336,0.337,0.337,0.338,0.338,0.339,0.339,0.34,0.34,0.341,0.341,0.341,0.342,0.342,0.342,0.342,0.342,0.343,0.343,0.343,0.343,0.343,0.343,0.343,0.343,0.343,0.343,0.344,0.344,0.345,0.345,0.345,0.346,0.346,0.346,0.346,0.346,0.346,0.346,0.346,0.347,0.347,0.347,0.347,0.347,0.347,0.347,0.347,0.347,0.347,0.347,0.347,0.347,0.348,0.348,0.348,0.348,0.348,0.348,0.347,0.347,0.347,0.346,0.346,0.345,0.345,0.344,0.344,0.344,0.343,0.343,0.342,0.342,0.342,0.341,0.341,0.341,0.34,0.34,0.34,0.34,0.34,0.339,0.339,0.339,0.339,0.339,0.339,0.339,0.338,0.338,0.338,0.338,0.338,0.339,0.339,0.339,0.339,0.339,0.34,0.34,0.341,0.341,0.341,0.341,0.342,0.341,0.341,0.341,0.341,0.341,0.341,0.34,0.34,0.34,0.34,0.34,0.339,0.339,0.339,0.338,0.338,0.337,0.337,0.337,0.336,0.336,0.336,0.336,0.336,0.335,0.335,0.335,0.335,0.334,0.333,0.332,0.331,0.331,0.33,0.329,0.329,0.328,0.328,0.328,0.327,0.327,0.326,0.326,0.325,0.325,0.324,0.324,0.324,0.323,0.323,0.322,0.321,0.321,0.32,0.319,0.319,0.318,0.317,0.317,0.316,0.316,0.316,0.315,0.315,0.314,0.314,0.313,0.313,0.312,0.311,0.31,0.309,0.308,0.307,0.306,0.305,0.303,0.302,0.301,0.3,0.299,0.298,0.297,0.296,0.295,0.295,0.294,0.293,0.292,0.29,0.289,0,0.286,0.285,0.284,0.283,0.283,0.282,0.282,0.281,0.281,0.28,0.279,0.279,0.278,0.278,0.277,0.277,0.276,0.276,0.275,0.274,0.274,0.273,0.272,0,0,0,0,0.46,0.46,0.458,0.456,0.455,0.454,0.454,0.453,0.453,0.452,0.451,0.451,0.451,0.451,0.451,0.45,0.45,0.45,0.45,0.45,0.45,0.45,0.449,0.449,0.449,0.449,0.449,0.449,0.448,0.448,0.448,0.448,0.448,0.448,0.448,0.448,0.448,0.448,0.448,0.448,0.448,0.448,0.448,0.448,0.449,0.449,0.449,0.449,0.449,0.449,0.449,0.449,0.449,0.449,0.449,0.449,0.448,0.448,0.448,0.448,0.448,0.448,0.448,0.448,0.448,0.448,0.448,0.448,0.448,0.448,0.447,0.447,0.447,0.447,0.447,0.447,0.447,0.447,0.447,0.447,0.446,0.446,0.446,0.446,0.446,0.445,0.445,0.444,0.443,0.443,0.442,0.441,0.44,0.439,0.438,0.438,0.437,0.436,0.435,0.434,0.434,0.433,0.433,0.432,0.431,0.431,0.431,0.43,0.43,0.429,0.429,0.428,0.428,0.428,0.427,0.427,0.426,0.426,0.425,0.425,0.424,0.423,0.422,0.421,0.42,0.419,0.418,0.417,0.416,0.415,0.413,0.413,0.412,0.411,0.41,0.41,0,0.408,0,0,0,0,0,0,0
0,0,0,0,0,0,0,0,0,0,0,0,0,0,0.493,0.493,0.493,0.493,0.493,0.492,0.491,0.491,0.491,0.491,0.49,0.49,0.49,0.49,0.49,0.491,0.491,0.492,0.493,0.493,0.494,0.495,0.495,0.496,0.497,0,0,0,0,0,0,0,0.488,0.487,0.487,0.486,0.486,0.486,0.486,0.485,0.484,0.484,0.484,0.483,0.482,0.481,0.481,0.481,0.481,0.48,0.481,0.48,0.481,0.481,0.481,0.481,0.481,0.481,0.481,0.481,0.481,0.481,0.481,0.481,0.481,0.481,0.481,0.481,0.482,0.482,0.482,0.482,0.482,0.482,0.482,0.481,0.481,0.481,0.481,0.482,0.482,0.482,0.482,0.483,0.483,0.483,0.483,0.484,0.484,0.484,0.484,0.484,0.485,0.485,0.486,0,0,0,0,0,0,0,0,0,0,0,0,0,0,0,0,0,0,0,0,0,0,0,0,0,0,0,0.291,0,0,0.291,0.291,0.291,0.291,0.291,0.291,0.292,0.292,0.292,0.292,0.292,0.293,0.293,0.294,0.295,0.295,0.296,0.296,0.297,0.298,0.299,0.299,0.3,0.301,0.302,0.303,0.304,0.305,0.306,0.307,0.308,0.309,0.31,0.31,0.311,0.311,0.312,0.313,0.313,0.314,0.314,0.314,0.315,0.315,0.315,0.316,0.316,0.317,0.317,0.318,0.319,0.319,0.32,0.32,0.321,0.321,0.322,0.322,0.323,0.323,0.324,0.324,0.325,0.326,0.326,0.327,0.327,0.328,0.328,0.329,0.329,0.33,0.331,0.332,0.332,0.333,0.333,0.334,0.335,0.335,0.336,0.336,0.337,0.337,0.338,0.338,0.339,0.339,0.339,0.34,0.34,0.341,0.341,0.341,0.341,0.342,0.342,0.342,0.342,0.343,0.343,0.343,0.343,0.343,0.343,0.343,0.343,0.343,0.343,0.344,0.344,0.345,0.345,0.345,0.346,0.346,0.346,0.346,0.346,0.346,0.346,0.346,0.346,0.347,0.347,0.347,0.347,0.347,0.347,0.347,0.347,0.347,0.347,0.347,0.347,0.347,0.347,0.347,0.347,0.347,0.347,0.347,0.347,0.346,0.346,0.346,0.345,0.345,0.344,0.344,0.343,0.343,0.343,0.342,0.342,0.342,0.341,0.341,0.341,0.34,0.34,0.34,0.34,0.34,0.339,0.339,0.339,0.339,0.339,0.339,0.339,0.339,0.339,0.338,0.338,0.338,0.338,0.339,0.339,0.339,0.339,0.339,0.34,0.34,0.34,0.341,0.341,0.341,0.341,0.341,0.341,0.341,0.34,0.34,0.34,0.34,0.339,0.339,0.339,0.339,0.339,0.338,0.338,0.337,0.337,0.337,0.337,0.336,0.336,0.336,0.336,0.336,0.335,0.335,0.335,0.334,0.334,0.333,0.332,0.331,0.33,0.33,0.329,0.329,0.328,0.328,0.328,0.327,0.327,0.326,0.326,0.325,0.325,0.324,0.324,0.323,0.323,0.322,0.322,0.321,0.32,0.32,0.319,0.318,0.318,0.317,0.317,0.316,0.316,0.316,0.315,0.315,0.314,0.314,0.313,0.313,0.312,0.311,0.31,0.309,0.308,0.307,0.305,0.304,0.303,0,0.3,0.3,0.299,0.298,0.297,0.296,0.295,0.295,0.294,0.293,0.291,0.29,0.288,0,0.286,0.285,0.283,0.283,0.282,0.282,0.282,0.281,0.28,0.28,0.279,0.278,0.278,0.277,0.277,0.276,0.276,0.275,0.275,0.274,0.273,0.273,0.272,0.271,0.271,0,0,0,0.458,0,0,0,0.452,0.451,0.451,0.45,0.45,0.449,0.449,0.449,0.449,0.448,0.448,0.448,0.448,0.448,0.447,0.447,0.447,0.447,0.447,0.446,0.446,0.446,0.446,0.446,0.446,0.446,0.446,0.446,0.446,0.446,0.446,0.446,0.446,0.445,0.445,0.446,0.446,0.446,0.446,0.446,0.446,0.446,0.446,0.446,0.446,0.446,0.446,0.446,0.446,0.446,0.446,0.446,0.446,0.446,0.446,0.446,0.446,0.446,0.446,0.446,0.446,0.446,0.446,0.446,0.446,0.446,0.446,0.446,0.445,0.445,0.445,0.445,0.445,0.445,0.445,0.445,0.445,0.445,0.444,0.444,0.443,0.443,0.442,0.442,0.441,0.44,0.44,0.439,0.438,0.438,0.437,0.436,0.436,0.435,0.434,0.434,0.433,0.432,0.432,0.431,0.431,0.431,0.43,0.43,0.429,0.429,0.429,0.428,0.428,0.428,0.427,0.427,0.426,0.426,0.425,0.424,0.423,0.422,0.421,0.42,0.419,0.418,0.417,0.415,0.414,0.413,0.412,0.411,0.41,0.41,0.409,0.409,0.408,0,0,0,0,0,0,0
0,0,0,0,0,0,0,0,0,0,0,0,0,0,0.491,0.491,0.491,0.491,0.491,0.49,0.49,0.489,0.489,0.488,0.488,0.488,0.488,0.488,0.488,0.488,0.489,0.49,0.49,0.491,0.491,0.493,0.493,0.494,0.494,0.494,0.493,0.491,0.49,0.488,0.486,0.486,0.485,0.484,0.484,0.484,0.484,0.483,0.483,0.482,0.482,0.481,0.481,0.48,0.48,0.48,0.479,0.479,0.479,0.479,0.479,0.479,0.479,0.479,0.479,0.479,0.479,0.479,0.479,0.479,0.478,0.478,0.478,0.478,0.478,0.478,0.478,0.478,0.479,0.479,0.479,0.479,0.479,0.479,0.479,0.479,0.479,0.479,0.48,0.48,0.48,0.48,0.481,0.481,0.482,0.482,0.482,0.483,0.482,0.483,0.483,0.484,0.484,0.484,0,0,0,0,0,0,0,0,0,0,0,0,0,0,0,0,0,0,0,0,0,0,0,0,0,0,0,0.291,0.291,0.291,0.291,0.291,0.29,0.29,0.29,0.29,0.29,0.29,0.291,0.291,0.291,0.292,0.292,0.293,0.294,0.294,0.295,0.296,0.297,0.297,0.298,0.299,0.3,0.3,0.301,0.302,0.303,0.304,0.305,0.306,0.307,0.308,0.309,0.31,0.31,0.311,0.312,0.312,0.313,0.313,0.313,0.314,0.314,0.314,0.315,0.315,0.316,0.316,0.317,0.318,0.318,0.319,0.32,0.32,0.32,0.321,0.322,0.322,0.322,0.323,0.323,0.324,0.324,0.325,0.326,0.327,0.327,0.328,0.328,0.329,0.329,0.33,0.331,0.331,0.332,0.333,0.333,0.333,0.334,0.335,0.335,0.336,0.336,0.337,0.337,0.338,0.338,0.339,0.339,0.339,0.34,0.34,0.341,0.341,0.341,0.341,0.341,0.342,0.342,0.342,0.342,0.343,0.343,0.343,0.343,0.343,0.343,0.343,0.343,0.344,0.344,0.344,0.345,0.345,0.345,0.346,0.346,0.346,0.346,0.346,0.346,0.346,0.346,0.346,0.346,0.346,0.347,0.347,0.346,0.347,0.346,0.346,0.347,0.346,0.346,0.347,0.347,0.347,0.347,0.347,0.347,0.347,0.346,0.346,0.346,0.345,0.345,0.345,0.344,0.344,0.344,0.344,0.343,0.343,0.343,0.342,0.342,0.342,0.341,0.341,0.341,0.34,0.34,0.34,0.34,0.34,0.339,0.339,0.339,0.339,0.339,0.339,0.339,0.339,0.339,0.338,0.338,0.338,0.338,0.338,0.339,0.339,0.339,0.339,0.339,0.34,0.34,0.34,0.34,0.34,0.34,0.34,0.34,0.34,0.34,0.339,0.339,0.339,0.339,0.339,0.339,0.338,0.338,0.338,0.337,0.337,0.337,0.336,0.336,0.336,0.336,0.336,0.336,0.335,0.335,0.335,0.334,0.333,0.332,0.332,0.331,0.33,0.329,0.329,0.328,0.328,0.328,0.328,0.327,0.327,0.326,0.326,0.325,0.325,0.324,0.324,0.323,0.323,0.322,0.322,0.321,0.32,0.319,0.319,0.318,0.318,0.317,0.317,0.316,0.316,0.316,0.315,0.315,0.314,0.314,0.313,0.313,0.312,0.311,0.31,0.309,0.308,0.307,0.305,0.304,0.303,0.302,0.3,0.299,0.299,0.298,0.297,0.296,0.295,0.294,0.293,0.292,0.291,0.289,0.288,0.286,0.285,0.284,0.283,0.283,0.282,0.282,0.281,0.281,0.28,0.28,0.279,0.279,0.278,0.278,0.277,0.276,0.276,0.275,0.275,0.274,0.273,0.272,0.271,0.271,0.27,0.27,0.269,0,0,0,0,0,0,0.449,0.448,0.448,0.447,0.446,0.446,0.446,0.446,0.446,0.446,0.446,0.446,0.446,0.445,0.445,0.445,0.445,0.445,0.444,0.444,0.444,0.444,0.444,0.444,0.443,0.443,0.443,0.444,0.444,0.444,0.444,0.444,0.444,0.444,0.443,0.444,0.443,0.443,0.443,0.444,0.444,0.444,0.444,0.444,0.443,0.443,0.443,0.443,0.443,0.443,0.443,0.443,0.443,0.443,0.443,0.443,0.444,0.444,0.444,0.444,0.444,0.444,0.444,0.444,0.444,0.444,0.443,0.443,0.443,0.443,0.443,0.443,0.443,0.443,0.443,0.443,0.443,0.442,0.442,0.441,0.441,0.441,0.44,0.44,0.439,0.439,0.438,0.438,0.437,0.437,0.436,0.435,0.435,0.434,0.434,0.433,0.432,0.432,0.431,0.431,0.431,0.43,0.43,0.43,0.429,0.429,0.428,0.428,0.428,0.427,0.427,0.426,0.426,0.425,0.424,0.423,0.422,0.421,0.42,0.418,0.417,0.416,0.415,0.413,0.412,0.412,0.41,0.41,0.409,0.408,0.408,0.407,0,0,0,0,0,0,0
0,0,0,0,0,0,0,0,0,0,0,0,0,0,0,0.489,0.489,0.489,0.488,0.488,0.487,0.487,0.486,0.486,0.486,0.486,0.486,0.486,0.486,0.486,0.487,0.487,0.488,0.488,0.489,0.49,0.49,0.491,0.491,0.491,0,0,0,0,0,0.483,0.483,0.482,0.481,0.481,0.481,0.481,0.48,0.48,0.479,0.479,0.479,0.478,0.478,0.478,0.477,0.477,0.477,0.477,0.477,0.477,0.477,0.477,0.477,0.477,0.477,0.477,0.476,0.476,0.476,0.475,0.475,0.475,0.475,0.475,0.475,0.475,0.476,0.476,0.476,0.476,0.476,0.476,0.476,0.477,0.477,0.477,0.477,0.478,0.478,0.478,0.479,0.48,0.48,0.481,0.481,0.481,0.482,0.483,0.483,0.483,0.484,0,0,0,0,0,0,0,0,0,0,0,0,0,0,0,0,0,0,0,0,0,0,0,0,0,0,0,0.289,0.289,0.289,0.289,0.289,0.289,0.289,0.289,0.289,0.289,0.289,0.289,0.29,0.29,0.291,0.291,0.292,0.292,0.293,0.294,0.295,0.296,0.297,0.298,0.298,0.299,0.3,0.3,0.301,0.302,0.303,0.304,0.305,0.306,0.307,0.308,0.309,0.31,0.31,0.311,0.312,0.312,0.312,0.313,0.313,0.314,0.314,0.314,0.315,0.315,0.316,0.316,0.317,0.318,0.319,0.319,0.32,0.32,0.321,0.321,0.322,0.322,0.323,0.323,0.324,0.324,0.325,0.325,0.326,0.327,0.327,0.328,0.328,0.329,0.329,0.33,0.331,0.331,0.332,0.333,0.333,0.334,0.335,0.335,0.336,0.336,0.337,0.337,0.337,0.338,0.339,0.339,0.339,0.34,0.34,0.34,0.341,0.341,0.341,0.341,0.341,0.341,0.342,0.342,0.342,0.343,0.343,0.343,0.343,0.343,0.343,0.343,0.344,0.344,0.344,0.344,0.345,0.345,0.346,0.346,0.346,0.346,0.346,0.346,0.346,0.346,0.346,0.346,0.346,0.346,0.346,0.346,0.346,0.346,0.346,0.346,0.346,0.346,0.346,0.346,0.346,0.346,0.346,0.346,0.346,0.346,0.346,0.345,0.345,0.345,0.345,0.344,0.344,0.344,0.344,0.344,0.343,0.343,0.343,0.343,0.342,0.342,0.341,0.341,0.341,0.341,0.34,0.34,0.34,0.34,0.34,0.339,0.339,0.339,0.339,0.339,0.339,0.339,0.339,0.339,0.338,0.338,0.338,0.338,0.339,0.339,0.339,0.339,0.339,0.339,0.339,0.34,0.34,0.34,0.34,0.34,0.34,0.34,0.339,0.339,0.339,0.339,0.339,0.339,0.338,0.338,0.338,0.337,0.337,0.337,0.337,0.336,0.336,0.336,0.336,0.336,0.336,0.335,0.335,0.334,0.334,0.333,0.332,0.331,0.331,0.33,0.329,0.329,0.328,0.328,0.328,0.327,0.327,0.327,0.326,0.326,0.325,0.325,0.324,0.324,0.323,0.323,0.322,0.321,0.321,0.32,0.319,0.319,0.318,0.317,0.317,0.316,0.316,0.316,0.315,0.315,0.315,0.314,0.314,0.313,0.312,0.311,0.311,0.309,0.308,0.307,0.306,0.305,0.303,0.302,0.301,0.3,0.299,0.298,0.297,0.297,0.296,0.295,0.294,0.293,0.292,0.291,0.289,0.288,0.286,0.285,0.284,0.283,0.283,0.282,0.282,0.281,0.281,0.28,0.28,0.279,0.278,0.278,0.278,0.277,0.276,0.275,0.275,0.274,0.274,0.273,0.272,0.271,0.27,0.27,0.269,0.268,0.267,0,0,0,0,0,0.446,0.446,0.445,0.445,0.444,0.444,0.444,0.444,0.444,0.444,0.443,0.444,0.443,0.443,0.443,0.443,0.442,0.442,0.442,0.442,0.442,0.442,0.441,0.441,0.441,0.441,0.441,0.441,0.441,0.441,0.441,0.441,0.441,0.441,0.441,0.441,0.441,0.441,0.441,0.441,0.441,0.441,0.441,0.44,0.44,0.44,0.44,0.44,0.44,0.44,0.44,0.44,0.44,0.44,0.44,0.44,0.44,0.44,0.441,0.44,0.44,0.441,0.441,0.44,0.441,0.44,0.44,0.441,0.441,0.441,0.441,0.441,0.44,0.441,0.44,0.44,0.44,0.44,0.44,0.44,0.439,0.439,0.439,0.438,0.438,0.437,0.437,0.436,0.436,0.436,0.435,0.435,0.434,0.434,0.434,0.433,0.432,0.432,0.431,0.431,0.431,0.43,0.43,0.43,0.429,0.429,0.429,0.428,0.428,0.428,0.427,0.426,0.426,0.425,0.424,0.423,0.421,0.42,0.419,0.418,0.417,0.415,0.414,0.413,0.412,0.411,0.41,0.409,0.409,0.408,0.407,0.407,0,0,0,0,0,0,0
0,0,0,0,0,0,0,0,0,0,0,0,0,0,0,0,0.488,0.488,0.487,0.487,0.486,0.486,0.485,0.485,0.485,0.485,0.484,0.484,0.484,0.485,0.485,0.485,0.486,0.486,0.486,0.487,0.488,0.488,0.487,0.487,0,0,0,0,0,0.479,0.479,0.479,0.478,0.478,0.478,0.477,0.477,0.477,0.477,0.476,0.476,0.476,0.475,0.475,0.475,0.475,0.475,0.475,0.475,0.474,0.474,0.474,0.474,0.474,0.474,0.474,0.474,0.473,0.473,0.473,0.473,0.473,0.473,0.473,0.473,0.473,0.473,0.473,0.473,0.473,0.473,0.473,0.474,0.474,0.474,0.475,0.475,0.476,0.476,0.477,0.477,0.478,0.479,0.48,0.48,0.481,0.481,0.482,0.482,0,0,0,0,0,0,0,0,0,0,0,0,0,0,0,0,0,0,0,0,0,0,0,0,0,0,0,0,0.287,0.287,0.288,0.288,0.288,0.288,0.288,0.288,0.288,0.288,0.288,0,0,0.289,0.289,0.29,0.291,0.291,0.292,0.293,0.294,0.295,0.296,0.297,0.298,0.299,0.3,0.3,0.301,0.301,0.302,0.303,0.304,0.305,0.306,0.307,0.308,0.309,0.31,0.31,0.311,0.311,0.312,0.312,0.313,0.313,0.313,0.314,0.314,0.315,0.315,0.316,0.317,0.317,0.318,0.319,0.319,0.32,0.321,0.321,0.322,0.322,0.323,0.323,0.324,0.324,0.324,0.325,0.326,0.326,0.327,0.327,0.328,0.328,0.329,0.329,0.33,0.331,0.331,0.332,0.333,0.333,0.334,0.335,0.335,0.336,0.336,0.337,0.337,0.338,0.338,0.339,0.339,0.339,0.34,0.34,0.34,0.341,0.341,0.341,0.341,0.341,0.341,0.342,0.342,0.342,0.343,0.343,0.343,0.343,0.343,0.344,0.344,0.344,0.344,0.344,0.345,0.345,0.345,0.346,0.346,0.346,0.346,0.346,0.346,0.346,0.346,0.346,0.346,0.346,0.346,0.346,0.346,0.346,0.346,0.346,0.346,0.346,0.346,0.346,0.346,0.346,0.346,0.346,0.346,0.345,0.346,0.345,0.345,0.345,0.345,0.344,0.344,0.344,0.344,0.344,0.344,0.343,0.343,0.343,0.343,0.342,0.342,0.342,0.341,0.341,0.341,0.341,0.34,0.34,0.34,0.34,0.34,0.339,0.339,0.339,0.339,0.339,0.339,0.339,0.339,0.339,0.338,0.338,0.338,0.338,0.338,0.339,0.339,0.339,0.339,0.339,0.339,0.339,0.339,0.339,0.339,0.339,0.339,0.339,0.339,0.339,0.338,0.338,0.338,0.338,0.338,0.337,0.337,0.337,0.337,0.336,0.336,0.336,0.336,0.336,0.335,0.335,0.335,0.335,0.334,0.333,0.333,0.332,0.331,0.33,0.33,0.329,0.329,0.328,0.328,0.328,0.327,0.327,0.326,0.326,0.326,0.325,0.324,0.324,0.324,0.323,0.323,0.322,0.321,0.32,0.32,0.319,0.318,0.317,0.317,0.316,0.316,0.316,0.315,0.315,0.315,0.314,0.314,0.313,0.313,0.312,0.311,0.31,0.309,0.308,0.307,0.306,0.304,0.303,0.302,0.301,0.3,0.299,0.298,0.297,0.297,0.296,0.295,0.294,0.293,0.292,0.29,0.289,0.288,0.286,0.285,0.284,0.283,0.283,0.282,0.282,0.282,0.281,0.28,0.28,0.279,0.279,0.278,0.277,0.277,0.276,0.275,0.275,0.274,0.274,0.273,0.272,0.271,0.27,0,0.268,0.268,0.267,0.267,0,0,0,0,0.444,0.443,0.443,0.443,0.442,0.442,0.442,0.442,0.442,0.442,0.441,0.441,0.441,0.441,0.441,0.44,0.44,0.44,0.44,0.44,0.439,0.439,0.439,0.439,0.439,0.439,0.439,0.439,0.439,0.439,0.439,0.439,0.439,0.439,0.439,0.439,0.439,0.439,0.439,0.439,0.439,0.438,0.438,0.438,0.438,0.438,0.438,0.438,0.438,0.438,0.438,0.438,0.438,0.438,0.438,0.438,0.438,0.438,0.438,0.438,0.438,0.438,0.438,0.438,0.438,0.438,0.438,0.438,0.438,0.438,0.438,0.438,0.437,0.437,0.437,0.437,0.437,0.437,0.437,0.437,0.437,0.437,0.437,0.437,0.436,0.436,0.436,0.435,0.435,0.435,0.434,0.434,0.434,0.433,0.433,0.432,0.432,0.432,0.431,0.431,0.431,0.43,0.43,0.43,0.429,0.429,0.429,0.428,0.428,0.428,0.427,0.426,0.426,0.425,0.424,0.423,0.421,0.42,0.419,0.417,0.416,0.415,0.413,0.412,0.411,0.41,0.41,0.409,0.408,0,0,0,0,0,0,0,0,0,0
0,0,0,0,0,0,0,0,0,0,0,0,0,0,0,0,0.486,0.486,0.486,0.485,0.484,0.484,0.484,0.484,0.484,0.483,0.483,0.483,0.483,0.483,0.483,0.483,0.482,0.481,0.481,0.481,0.481,0.48,0.479,0.478,0,0,0,0.475,0.474,0,0,0.475,0.475,0.475,0.475,0.475,0.474,0.474,0.474,0.474,0.474,0.473,0.473,0.473,0.473,0.473,0.473,0.473,0.473,0.472,0.472,0.472,0.472,0.472,0.472,0.471,0.471,0.47,0.47,0.47,0.47,0.469,0.469,0.469,0.469,0.47,0.47,0.47,0.47,0.47,0.47,0.47,0.471,0.471,0.472,0.472,0.473,0.473,0.474,0.475,0.476,0.477,0.478,0.478,0.48,0.48,0.481,0.481,0,0,0,0,0,0,0,0,0,0,0,0,0,0,0,0,0,0,0,0,0,0,0,0,0,0,0,0.286,0.286,0.286,0.286,0.286,0.286,0.286,0.287,0.287,0.287,0.287,0.287,0.287,0.288,0.288,0.288,0.289,0.289,0.29,0.291,0.292,0.293,0.294,0.295,0.296,0.297,0.298,0.299,0.3,0.3,0.301,0.302,0.302,0.303,0.304,0.305,0.306,0.306,0.308,0.308,0.309,0.31,0.311,0.311,0.312,0.312,0.313,0.313,0.313,0.314,0.314,0.315,0.315,0.316,0.317,0.317,0.318,0.319,0.32,0.32,0.321,0.321,0.322,0.322,0.323,0.323,0.324,0.324,0.325,0.325,0.326,0.326,0.327,0.327,0.328,0.328,0.329,0.33,0.33,0.331,0.332,0.332,0.333,0.334,0.334,0.335,0.335,0.336,0.336,0.337,0.337,0.338,0.338,0.339,0.339,0.339,0.34,0.34,0.34,0.341,0.341,0.341,0.341,0.341,0.341,0.342,0.342,0.342,0.342,0.343,0.343,0.343,0.344,0.344,0.344,0.344,0.345,0.345,0.345,0.345,0.345,0.346,0.346,0.346,0.346,0.346,0.346,0.346,0.346,0.346,0.346,0.346,0.346,0.346,0.346,0.346,0.346,0.345,0.345,0.345,0.345,0.345,0.345,0.345,0.345,0.345,0.345,0.345,0.345,0.345,0.345,0.344,0.344,0.344,0.344,0.344,0.344,0.344,0.344,0.344,0.343,0.343,0.343,0.343,0.342,0.342,0.341,0.341,0.341,0.341,0.341,0.34,0.34,0.34,0.34,0.34,0.339,0.339,0.339,0.339,0.339,0.339,0.339,0.339,0.338,0.338,0.338,0.338,0.338,0.339,0.338,0.339,0.339,0.339,0.339,0.339,0.339,0.339,0.339,0.339,0.339,0.339,0.339,0.338,0.338,0.338,0.338,0.338,0.337,0.337,0.337,0.336,0.336,0.336,0.336,0.336,0.335,0.335,0.335,0.335,0.335,0.334,0.334,0.333,0.333,0.332,0.331,0.33,0.329,0.329,0.328,0.328,0.328,0.327,0.327,0.327,0.326,0.326,0.325,0.325,0.324,0.324,0.323,0.323,0.322,0.322,0.321,0.32,0.319,0.319,0.318,0.317,0.317,0.316,0.316,0.316,0.315,0.315,0.314,0.314,0.313,0.313,0.312,0.311,0.31,0.309,0.308,0.307,0.306,0.305,0.304,0.303,0.302,0.301,0.3,0.299,0.298,0.297,0.296,0.296,0.295,0.294,0.293,0.292,0.291,0.289,0.288,0.287,0.286,0.285,0.284,0.283,0.283,0.282,0.282,0.281,0.281,0.28,0.279,0.279,0.278,0.278,0.277,0.276,0.275,0.275,0.274,0.274,0.273,0.272,0.27,0.269,0.269,0.268,0.267,0.267,0.266,0.266,0,0,0,0.441,0.441,0.441,0.441,0.44,0.44,0.44,0.44,0.44,0.439,0.439,0.439,0.439,0.439,0.439,0.439,0.438,0.438,0.438,0.438,0.437,0.437,0.437,0.437,0.437,0.437,0.437,0.437,0.437,0.437,0.437,0.437,0.437,0.437,0.437,0.437,0.437,0.437,0.437,0.436,0.436,0.436,0.436,0.436,0.436,0.436,0.436,0.436,0.436,0.436,0.436,0.436,0.436,0.436,0.435,0.435,0.435,0.435,0.435,0.435,0.435,0.435,0.435,0.435,0.435,0.435,0.435,0.434,0.434,0.434,0.434,0.434,0.434,0.434,0.434,0.434,0.434,0.434,0.435,0.435,0.435,0.435,0.435,0.435,0.435,0.435,0.434,0.434,0.434,0.434,0.434,0.433,0.433,0.433,0.432,0.432,0.431,0.431,0.431,0.431,0.43,0.43,0.43,0.43,0.43,0.429,0.429,0.428,0.428,0.428,0.427,0.426,0.426,0.425,0.424,0.423,0.421,0.42,0.418,0.417,0.416,0.414,0.413,0.412,0.411,0.41,0.41,0.409,0.408,0.408,0.407,0,0,0,0,0.405,0.405,0.404,0.404
0,0,0,0,0,0,0,0,0,0,0,0,0,0,0,0,0,0.484,0.484,0.483,0.483,0.483,0.483,0.483,0.482,0.482,0.481,0.481,0.481,0.482,0.481,0.48,0.479,0.478,0.477,0.477,0,0.475,0,0,0,0,0,0.471,0.471,0.471,0.471,0.472,0.472,0.472,0.472,0.472,0.472,0.471,0.472,0.471,0.471,0.471,0.471,0.471,0.47,0.47,0.47,0.47,0.47,0.47,0.47,0.47,0.47,0.469,0.469,0.469,0.469,0.468,0.468,0.467,0.467,0.467,0.467,0.467,0.467,0.466,0.467,0.467,0.467,0.467,0.467,0.468,0.468,0.469,0.469,0.47,0.47,0.471,0.472,0.473,0,0,0.477,0,0,0.479,0,0,0,0,0,0,0,0,0,0,0,0,0,0,0,0,0,0,0,0,0,0,0,0,0,0,0,0,0.283,0.284,0.284,0.285,0.285,0.285,0.285,0.285,0.285,0.286,0.286,0.286,0.286,0.286,0.287,0.287,0.288,0.288,0.289,0.29,0.291,0.292,0.293,0.294,0.295,0.296,0.297,0.299,0.299,0.3,0.301,0.301,0.302,0.302,0.303,0.304,0.305,0.305,0.306,0.307,0.308,0.309,0.31,0.311,0.311,0.312,0.312,0.312,0.313,0.313,0.314,0.314,0.315,0.315,0.316,0.317,0.318,0.319,0.319,0.32,0.321,0.321,0.322,0.322,0.323,0.323,0.323,0.324,0.324,0.325,0.325,0.326,0.326,0.327,0.327,0.328,0.329,0.329,0.33,0.33,0.331,0.332,0.332,0.333,0.334,0.334,0.335,0.335,0.336,0.336,0.337,0.337,0.337,0.338,0.339,0.339,0.339,0.34,0.34,0.34,0.341,0.341,0.341,0.341,0.341,0.341,0.342,0.342,0.342,0.343,0.343,0.343,0.344,0.344,0.344,0.344,0.345,0.345,0.345,0.345,0.345,0.345,0.346,0.346,0.346,0.346,0.346,0.346,0.346,0.346,0.346,0.346,0.346,0.346,0.345,0.345,0.345,0.345,0.345,0.345,0.345,0.345,0.345,0.345,0.345,0.345,0.345,0.344,0.344,0.344,0.344,0.344,0.344,0.344,0.344,0.344,0.344,0.344,0.344,0.344,0.344,0.344,0.343,0.343,0.343,0.342,0.342,0.342,0.341,0.341,0.341,0.341,0.341,0.34,0.34,0.34,0.34,0.34,0.339,0.339,0.339,0.339,0.339,0.339,0.339,0.338,0.338,0.338,0.338,0.338,0.338,0.338,0.338,0.339,0.339,0.339,0.339,0.339,0.339,0.339,0.339,0.339,0.339,0.338,0.338,0.338,0.338,0.337,0.337,0.337,0.337,0.336,0.336,0.336,0.336,0.335,0.335,0.335,0.335,0.335,0.335,0.334,0.334,0.333,0.333,0.332,0.331,0.331,0.33,0.329,0.329,0.328,0.328,0.328,0.327,0.327,0.326,0.326,0.325,0.325,0.325,0.324,0.324,0.323,0.323,0.322,0.321,0.321,0.32,0.319,0.319,0.318,0.317,0.316,0.316,0.316,0.315,0.315,0.314,0.314,0.313,0.313,0.312,0.311,0.311,0.31,0.309,0.308,0.307,0.306,0.305,0.304,0.303,0.302,0.3,0.3,0.299,0.298,0.297,0.296,0.295,0.295,0.294,0.293,0.292,0.29,0.289,0.288,0.287,0.286,0.285,0.284,0.283,0.283,0.283,0.282,0.282,0.281,0.281,0.28,0,0,0,0,0,0.275,0.275,0,0.274,0.272,0.271,0,0,0.268,0.267,0.267,0.266,0.266,0.265,0.265,0,0,0,0.44,0.439,0.439,0.439,0.439,0.438,0.438,0.438,0.438,0.437,0.437,0.437,0.437,0.436,0.436,0.436,0.436,0.436,0.435,0.435,0.435,0.435,0.435,0.435,0.434,0.434,0.434,0.434,0.434,0.434,0.434,0.434,0.434,0.434,0.434,0.434,0.434,0.434,0.434,0.434,0.434,0.433,0.433,0.433,0.433,0.433,0.433,0.434,0.433,0.433,0.433,0.433,0.433,0.433,0.433,0.433,0.433,0.433,0.433,0.432,0.432,0.432,0.432,0.432,0.432,0.432,0.432,0.432,0.432,0.431,0.431,0.431,0.431,0.431,0.431,0.431,0.432,0.432,0.433,0.433,0.433,0.434,0.434,0.434,0.434,0.433,0.433,0.433,0.433,0.432,0.432,0.432,0.432,0.431,0.431,0.431,0.431,0.431,0.43,0.43,0.43,0.43,0.43,0.429,0.429,0.429,0.428,0.428,0.428,0.427,0.426,0.426,0.425,0.424,0.422,0.421,0.419,0.418,0.417,0.415,0.414,0.413,0.412,0.411,0.41,0.409,0.409,0.408,0.407,0,0,0,0,0,0,0.405,0.404,0.404
0,0,0,0,0,0,0,0,0,0,0,0,0,0,0,0,0,0,0.482,0.481,0,0,0.481,0.481,0.481,0.48,0.48,0.479,0.479,0.478,0,0,0,0.472,0.471,0.471,0.47,0.468,0.466,0,0,0,0.465,0.465,0.466,0,0.468,0.468,0.469,0.469,0.47,0.47,0.469,0.469,0.469,0.469,0.469,0.469,0.469,0.468,0.468,0.468,0.468,0.468,0.468,0.468,0.468,0.468,0.467,0.467,0.467,0.466,0.466,0.465,0.465,0.465,0.464,0.464,0.464,0.464,0.464,0.464,0.464,0.464,0.464,0.464,0.464,0.465,0.465,0.466,0.466,0.467,0.468,0.469,0.47,0.471,0.472,0.474,0.476,0,0,0,0,0,0,0,0,0,0,0,0,0,0,0,0,0,0,0,0,0,0,0,0,0,0,0,0,0,0,0,0,0,0.283,0.283,0.283,0.283,0.283,0.284,0.284,0.284,0.284,0.285,0.285,0.285,0.286,0.286,0.287,0.288,0.289,0.289,0.29,0.292,0.293,0.294,0.295,0.296,0.297,0.299,0.3,0.3,0.301,0.301,0.302,0.302,0.303,0.304,0.305,0.305,0.306,0.307,0.308,0.309,0.31,0.311,0.311,0.311,0.312,0.312,0.313,0.313,0.314,0.314,0.315,0.315,0.316,0.317,0.318,0.319,0.32,0.32,0.321,0.321,0.322,0.322,0.323,0.323,0.323,0.324,0.324,0.325,0.325,0.326,0.326,0.327,0.327,0.328,0.329,0.329,0.33,0.33,0.331,0.332,0.332,0.333,0.334,0.334,0.335,0.335,0.335,0.336,0.336,0.337,0.337,0.338,0.338,0.339,0.339,0.339,0.34,0.34,0.341,0.341,0.341,0.341,0.341,0.341,0.342,0.342,0.342,0.343,0.343,0.343,0.344,0.344,0.345,0.345,0.345,0.345,0.345,0.345,0.346,0.346,0.346,0.346,0.346,0.346,0.346,0.346,0.346,0.346,0.346,0.346,0.346,0.345,0.345,0.345,0.345,0.345,0.345,0.345,0.345,0.345,0.345,0.345,0.344,0.344,0.344,0.344,0.344,0.344,0.344,0.344,0.344,0.344,0.344,0.344,0.344,0.344,0.344,0.344,0.344,0.344,0.343,0.343,0.343,0.343,0.342,0.342,0.342,0.341,0.341,0.341,0.341,0.341,0.341,0.34,0.34,0.34,0.34,0.34,0.339,0.339,0.339,0.339,0.339,0.339,0.339,0.339,0.338,0.338,0.338,0.338,0.339,0.338,0.339,0.339,0.339,0.339,0.339,0.339,0.339,0.339,0.338,0.338,0.338,0.338,0.337,0.337,0.337,0.337,0.336,0.336,0.336,0.336,0.335,0.335,0.335,0.335,0.335,0.334,0.334,0.334,0.333,0.333,0.332,0.332,0.331,0.331,0.33,0.329,0.329,0.328,0.328,0.328,0.327,0.327,0.326,0.326,0.325,0.325,0.324,0.324,0.324,0.323,0.323,0.322,0.321,0.321,0.32,0.319,0.318,0.318,0.317,0.316,0.316,0.316,0.315,0.315,0.314,0.314,0.313,0.312,0.311,0.311,0.31,0.309,0.308,0.307,0.306,0.305,0.304,0.303,0.302,0.301,0.3,0.299,0.298,0.298,0.297,0.296,0.295,0.295,0.294,0.293,0.292,0.291,0.29,0.289,0.288,0.287,0.286,0.285,0.284,0.284,0.283,0.283,0.282,0.282,0,0,0,0,0,0,0,0,0,0,0,0,0,0,0,0,0.266,0.266,0.265,0.265,0.265,0.264,0,0,0,0,0.439,0.439,0.438,0.438,0.438,0.438,0.437,0.437,0.436,0.436,0.436,0.435,0.435,0.434,0.434,0.434,0.434,0.434,0.433,0.433,0.433,0.433,0.433,0.433,0.432,0.432,0.432,0.432,0.432,0.432,0.432,0.432,0.432,0.432,0.432,0.432,0.432,0.432,0.431,0.431,0.431,0.431,0.431,0.431,0.431,0.431,0.431,0.431,0.431,0.431,0.431,0.431,0.431,0.431,0.431,0.431,0.43,0.43,0.43,0.43,0.43,0.43,0.43,0.43,0.43,0.43,0.43,0.43,0.429,0.429,0.429,0.429,0.429,0.429,0.429,0.43,0.43,0.431,0.431,0.431,0.432,0.432,0.432,0.432,0.432,0.431,0.431,0.431,0.431,0.431,0.431,0.431,0.431,0.43,0.43,0.43,0.43,0.43,0.43,0.429,0.429,0.429,0.429,0.429,0.429,0.428,0.428,0.428,0.427,0.426,0.425,0.424,0.423,0.422,0.421,0.419,0.417,0.416,0.415,0.414,0.413,0.412,0.411,0.41,0.41,0.409,0.409,0,0,0,0,0,0,0,0,0.405,0.405
0,0,0,0,0,0,0,0,0,0,0,0,0,0,0,0,0,0,0,0,0,0,0,0,0,0,0,0,0,0,0,0,0,0,0,0.466,0.466,0.464,0.463,0,0,0,0.463,0.463,0.464,0.464,0.465,0.466,0.466,0.467,0.467,0.467,0.467,0.467,0.467,0.467,0.467,0.466,0.466,0.466,0.466,0.466,0.466,0.466,0.466,0.465,0.465,0.465,0.465,0.465,0.464,0.464,0.464,0.463,0.463,0.462,0.462,0.462,0.462,0.462,0.462,0.462,0.462,0.462,0.462,0.462,0.463,0.463,0.464,0.464,0.465,0.465,0.466,0.468,0.469,0.47,0,0,0,0,0,0,0,0,0,0,0,0,0,0,0,0,0,0,0,0,0,0,0,0,0,0,0,0,0,0,0,0,0.279,0,0,0,0,0,0.281,0.282,0.282,0.282,0.282,0.283,0.283,0.283,0.284,0.284,0.285,0.286,0.287,0.287,0.288,0.289,0.29,0.292,0.293,0.294,0.295,0.296,0.297,0.299,0.3,0.3,0.301,0.301,0.302,0.302,0.303,0.304,0.305,0.305,0.306,0.307,0.308,0.309,0.31,0.31,0.311,0.311,0.312,0.312,0.313,0.313,0.314,0.314,0.315,0.316,0.316,0.317,0.318,0.319,0.32,0.32,0.321,0.321,0.322,0.322,0.323,0.323,0.323,0.324,0.324,0.325,0.325,0.326,0.326,0.327,0.327,0.328,0.328,0.329,0.33,0.33,0.331,0.332,0.332,0.333,0.333,0.334,0.334,0.335,0.335,0.335,0.336,0.336,0.337,0.337,0.338,0.338,0.339,0.339,0.34,0.34,0.341,0.341,0.341,0.341,0.341,0.341,0.342,0.342,0.342,0.343,0.343,0.344,0.344,0.344,0.345,0.345,0.345,0.345,0.346,0.346,0.346,0.346,0.346,0.346,0.346,0.346,0.346,0.346,0.346,0.346,0.346,0.346,0.346,0.345,0.345,0.345,0.345,0.345,0.345,0.345,0.345,0.345,0.344,0.344,0.344,0.344,0.344,0.344,0.344,0.344,0.344,0.344,0.344,0.344,0.344,0.344,0.344,0.344,0.344,0.344,0.344,0.344,0.344,0.343,0.343,0.343,0.343,0.342,0.342,0.342,0.342,0.341,0.341,0.341,0.341,0.341,0.34,0.34,0.34,0.34,0.34,0.339,0.339,0.339,0.339,0.339,0.339,0.339,0.339,0.339,0.339,0.338,0.339,0.338,0.339,0.339,0.339,0.339,0.338,0.338,0.339,0.339,0.338,0.338,0.338,0.338,0.337,0.337,0.337,0.337,0.337,0.336,0.336,0.336,0.335,0.335,0.335,0.334,0.334,0.334,0.334,0.333,0.333,0.332,0.332,0.331,0.331,0.33,0.329,0.329,0.328,0.328,0.328,0.328,0.327,0.327,0.326,0.326,0.325,0.325,0.324,0.324,0.323,0.323,0.323,0.322,0.321,0.321,0.32,0.319,0.319,0.318,0.317,0.316,0.316,0.315,0.315,0.314,0.314,0.313,0.312,0.312,0.311,0.31,0.309,0.308,0.308,0.307,0.306,0.305,0.304,0.303,0.302,0.301,0.3,0.299,0.298,0.297,0.297,0.296,0.295,0.294,0.294,0.293,0.292,0.291,0.29,0.289,0.288,0.287,0.286,0.286,0.285,0.284,0.284,0.284,0.283,0.282,0,0,0,0,0,0,0,0,0,0,0,0,0,0,0,0,0.266,0.265,0.265,0.264,0.264,0.263,0.263,0.262,0,0,0,0,0.438,0.438,0.437,0.437,0.436,0.436,0.435,0.435,0.434,0.434,0.434,0.433,0.432,0.432,0.432,0.431,0.431,0.431,0.431,0.431,0.431,0.431,0.43,0.43,0.43,0.43,0.43,0.43,0.43,0.43,0.43,0.43,0.43,0.43,0.43,0.43,0.429,0.429,0.429,0.429,0.429,0.429,0.429,0.429,0.429,0.429,0.429,0.429,0.429,0.428,0.428,0.428,0.428,0.428,0.428,0.428,0.428,0.428,0.428,0.428,0.428,0.428,0.428,0.428,0.428,0.428,0.427,0.427,0.427,0.426,0.426,0.426,0.427,0.427,0.428,0.428,0.429,0.429,0.43,0.43,0.43,0.43,0.43,0.43,0.43,0.43,0.429,0.429,0.429,0.429,0.429,0.429,0.429,0.429,0.429,0.429,0.429,0.429,0.429,0.429,0.428,0.428,0.428,0.428,0.428,0.427,0.426,0.426,0.425,0.424,0.423,0.421,0.42,0.419,0.417,0.416,0.415,0.414,0.413,0.412,0.411,0.411,0,0,0,0,0,0,0,0,0,0,0,0.406,0.406
0,0,0,0,0,0,0,0,0,0,0,0,0,0,0,0,0,0,0,0,0,0,0,0,0,0,0,0,0,0,0,0,0,0,0.463,0.462,0.462,0.461,0.461,0.461,0.461,0.461,0.46,0.461,0.462,0.462,0.463,0.464,0.464,0.465,0.465,0.465,0.465,0.465,0.465,0.465,0.465,0.465,0.465,0.465,0.464,0.464,0.464,0.464,0.464,0.464,0.463,0.463,0.463,0.462,0.462,0.462,0.461,0.461,0.461,0.46,0.46,0.46,0.46,0.46,0.46,0.46,0.46,0.46,0.46,0.46,0.461,0.461,0.462,0.463,0.463,0.464,0.465,0.466,0,0,0,0,0,0,0,0,0,0,0,0,0,0,0,0,0,0,0,0,0,0,0,0,0,0,0,0,0,0,0,0,0,0.277,0,0,0,0,0,0.28,0.28,0.28,0.281,0.281,0.281,0.282,0.282,0.283,0.283,0.284,0.285,0.286,0.286,0.287,0.288,0.289,0.29,0.291,0.293,0.294,0.295,0.296,0.298,0.299,0.3,0.3,0.301,0.302,0.302,0.302,0.303,0.304,0.305,0.305,0.306,0.307,0.308,0.309,0.309,0.31,0.311,0.311,0.312,0.312,0.312,0.313,0.314,0.314,0.315,0.316,0.316,0.317,0.318,0.319,0.319,0.32,0.321,0.321,0.322,0.322,0.322,0.323,0.323,0.324,0.324,0.324,0.325,0.325,0.326,0.327,0.327,0.328,0.328,0.329,0.329,0.33,0.331,0.331,0.332,0.332,0.333,0.333,0.333,0.334,0.334,0.335,0.335,0.336,0.336,0.337,0.337,0.338,0.339,0.339,0.34,0.34,0.341,0.341,0.341,0.341,0.341,0.342,0.342,0.342,0.343,0.343,0.343,0.344,0.344,0.344,0.345,0.345,0.345,0.346,0.346,0.346,0.346,0.346,0.346,0.346,0.346,0.346,0.346,0.346,0.346,0.346,0.346,0.346,0.346,0.346,0.345,0.345,0.345,0.345,0.345,0.345,0.344,0.344,0.344,0.344,0.344,0.344,0.344,0.344,0.344,0.344,0.344,0.344,0.344,0.344,0.344,0.344,0.344,0.344,0.344,0.344,0.344,0.344,0.344,0.343,0.343,0.343,0.343,0.342,0.342,0.342,0.342,0.342,0.342,0.341,0.341,0.341,0.341,0.34,0.34,0.34,0.34,0.34,0.339,0.339,0.339,0.339,0.339,0.339,0.339,0.339,0.339,0.339,0.339,0.339,0.339,0.339,0.339,0.338,0.338,0.338,0.338,0.338,0.338,0.338,0.338,0.337,0.337,0.337,0.337,0.337,0.337,0.336,0.336,0.336,0.335,0.335,0.334,0.334,0.334,0.333,0.333,0.333,0.332,0.332,0.331,0.331,0.33,0.33,0.329,0.329,0.328,0.328,0.328,0.327,0.327,0.327,0.326,0.325,0.325,0.325,0.324,0.324,0.323,0.323,0.322,0.322,0.321,0.321,0.32,0.319,0.319,0.318,0.317,0.317,0.316,0.315,0.315,0.314,0.313,0.313,0.312,0.311,0.31,0.309,0.309,0.308,0.307,0.306,0.305,0.304,0.303,0.303,0.302,0.3,0.3,0.299,0.298,0.297,0.296,0.296,0.295,0.294,0.294,0.293,0.292,0.291,0.29,0.289,0.289,0.288,0.287,0.286,0.285,0.285,0.285,0.284,0.284,0.283,0,0,0,0,0,0,0,0,0,0,0,0,0,0,0,0,0,0.264,0.264,0.263,0.263,0.263,0.262,0.261,0.261,0.26,0,0,0,0,0.437,0.436,0.436,0.435,0.434,0.434,0.433,0.433,0.432,0.431,0.431,0.43,0.43,0.43,0.43,0.429,0.429,0.429,0.429,0.428,0.428,0.428,0.428,0.428,0.428,0.428,0.428,0.428,0.428,0.428,0.428,0.428,0.428,0.428,0.428,0.428,0.427,0.428,0.428,0.428,0.427,0.427,0.427,0.427,0.427,0.427,0.427,0.426,0.426,0.426,0.426,0.426,0.426,0.426,0.426,0.426,0.426,0.426,0.426,0.426,0.426,0.426,0.426,0.425,0.425,0.425,0.425,0.424,0.424,0.424,0.424,0.425,0.425,0.426,0.427,0.427,0.428,0.428,0.428,0.428,0.428,0.428,0.428,0.428,0.428,0.428,0.428,0.428,0.428,0.428,0.428,0.428,0.428,0.428,0.428,0.428,0.428,0.428,0.428,0.428,0.428,0.427,0.427,0.426,0.426,0.425,0.424,0.423,0.422,0.421,0.42,0.418,0.417,0.416,0.415,0.414,0.413,0.412,0,0,0,0,0,0,0,0,0,0,0,0,0,0,0
0,0,0,0,0,0,0,0,0,0,0,0,0,0,0,0,0,0,0,0,0,0,0,0,0,0,0,0,0,0,0,0,0,0,0.459,0.458,0.458,0.458,0.458,0.458,0.458,0.458,0.458,0.459,0.46,0.461,0.461,0.462,0.462,0.463,0.463,0.463,0.464,0.464,0.464,0.464,0.464,0.463,0.463,0.463,0.462,0.462,0.462,0.462,0.461,0.461,0.461,0.461,0.46,0.46,0.46,0.46,0.459,0.458,0.458,0.458,0.458,0.457,0.457,0.457,0.457,0.458,0.458,0.458,0.458,0.459,0.46,0.46,0.461,0.462,0.463,0.463,0.464,0.465,0.467,0,0,0,0,0,0,0,0,0,0,0,0,0,0,0,0,0,0,0,0,0,0,0,0,0,0,0,0,0,0,0,0.275,0.275,0.276,0.276,0.277,0.278,0.278,0.278,0.279,0.279,0.28,0.28,0.28,0.281,0.282,0.282,0.283,0.284,0.285,0.285,0.286,0.287,0.288,0.289,0.29,0.292,0.293,0.294,0.295,0.296,0.297,0.299,0.3,0.3,0.301,0.302,0.302,0.302,0.303,0.304,0.304,0.305,0.306,0.306,0.307,0.308,0.309,0.31,0.31,0.311,0.311,0.312,0.312,0.313,0.314,0.314,0.315,0.316,0.316,0.317,0.318,0.319,0.319,0.32,0.32,0.321,0.321,0.322,0.322,0.323,0.323,0.323,0.324,0.324,0.325,0.325,0.326,0.326,0.327,0.327,0.328,0.329,0.329,0.33,0.33,0.331,0.331,0.332,0.332,0.333,0.333,0.333,0.334,0.334,0.335,0.335,0.336,0.337,0.337,0.338,0.338,0.339,0.339,0.34,0.341,0.341,0.341,0.342,0.342,0.342,0.342,0.342,0.343,0.343,0.343,0.344,0.344,0.344,0.345,0.345,0.345,0.345,0.345,0.346,0.346,0.346,0.346,0.346,0.346,0.346,0.346,0.346,0.346,0.346,0.346,0.346,0.346,0.345,0.345,0.345,0.345,0.345,0.345,0.345,0.344,0.344,0.344,0.344,0.344,0.344,0.344,0.344,0.344,0.344,0.344,0.344,0.344,0.344,0.344,0.344,0.344,0.344,0.344,0.344,0.344,0.344,0.344,0.343,0.343,0.343,0.343,0.343,0.342,0.342,0.342,0.342,0.342,0.342,0.341,0.341,0.341,0.341,0.341,0.34,0.34,0.34,0.339,0.339,0.339,0.339,0.339,0.339,0.339,0.339,0.339,0.339,0.339,0.339,0.339,0.339,0.338,0.338,0.338,0.338,0.338,0.338,0.338,0.338,0.338,0.337,0.337,0.337,0.337,0.337,0.337,0.336,0.336,0.336,0.335,0.335,0.334,0.334,0.334,0.333,0.333,0.332,0.332,0.331,0.331,0.331,0.33,0.33,0.329,0.329,0.328,0.328,0.328,0.327,0.327,0.326,0.326,0.325,0.325,0.324,0.324,0.324,0.323,0.323,0.322,0.322,0.321,0.32,0.32,0.319,0.319,0.318,0.317,0.317,0.316,0.315,0.315,0.314,0.313,0.312,0.311,0.311,0.31,0.309,0.308,0.307,0.306,0.306,0.305,0.304,0.303,0.302,0.301,0.3,0.299,0.298,0.297,0.297,0.296,0.295,0.295,0.294,0.293,0.293,0.292,0.291,0.291,0.29,0.289,0.288,0.288,0.287,0.286,0.286,0.285,0.285,0.284,0.284,0.283,0.283,0.282,0,0,0,0,0,0,0,0,0,0,0,0,0.263,0,0.262,0.262,0.262,0.262,0.262,0.261,0.261,0.26,0.26,0.259,0.259,0.258,0,0,0,0.435,0.434,0.434,0.433,0.432,0.431,0.431,0.43,0.429,0.429,0.428,0.428,0.428,0.427,0.427,0.427,0.427,0.426,0.426,0.426,0.426,0.425,0.425,0.425,0.425,0.425,0.426,0.426,0.426,0.426,0.426,0.426,0.426,0.426,0.426,0.426,0.426,0.426,0.426,0.425,0.425,0.425,0.425,0.425,0.424,0.424,0.424,0.424,0.424,0.424,0.424,0.424,0.424,0.424,0.424,0.424,0.424,0.424,0.424,0.424,0.424,0.423,0.423,0.423,0.422,0.422,0.422,0.421,0.422,0.423,0.423,0.424,0.425,0.425,0.425,0.426,0.426,0.426,0.426,0.426,0.426,0.426,0.426,0.426,0.426,0.426,0.426,0.426,0.426,0.426,0.426,0.426,0.426,0.427,0.427,0.427,0.427,0.427,0.427,0.427,0.426,0.426,0.425,0.424,0.423,0.423,0.422,0.421,0.419,0.418,0.417,0.416,0.415,0.414,0.413,0.412,0,0,0,0,0,0,0,0,0,0,0,0,0,0,0
0,0,0,0,0,0,0,0,0,0,0,0,0,0,0,0,0,0,0,0,0,0,0,0,0,0,0,0,0,0,0.456,0.456,0.456,0.456,0.456,0.456,0.456,0.456,0.456,0.456,0.456,0.456,0.456,0.457,0.458,0.458,0.459,0.46,0.461,0.461,0.462,0.462,0.462,0.462,0.462,0.462,0.462,0.461,0.461,0.46,0.46,0.46,0.459,0.459,0.459,0.459,0.458,0.458,0.458,0.457,0.457,0.457,0.457,0.456,0.456,0.456,0.455,0.455,0.455,0.455,0.455,0.456,0.456,0.456,0.457,0.457,0.458,0.459,0.459,0.461,0.461,0.463,0.463,0.464,0.466,0,0,0,0,0,0,0,0,0,0,0,0,0,0,0,0,0,0,0,0,0,0,0,0,0,0,0,0,0,0,0.274,0.274,0.274,0.275,0.275,0.276,0.276,0.277,0.277,0.278,0.278,0.279,0.279,0.28,0.281,0.281,0.282,0.283,0.283,0.284,0.285,0.286,0.287,0.288,0.289,0.29,0.292,0.293,0.294,0.295,0.296,0.297,0.299,0.3,0.3,0.301,0.301,0.302,0.302,0.303,0.303,0.304,0.305,0.305,0.306,0.307,0.307,0.308,0.309,0.31,0.311,0.311,0.312,0.312,0.313,0.314,0.314,0.315,0.316,0.316,0.317,0.318,0.319,0.319,0.32,0.32,0.321,0.321,0.322,0.322,0.323,0.323,0.323,0.324,0.324,0.325,0.325,0.326,0.326,0.327,0.327,0.328,0.328,0.329,0.329,0.33,0.33,0.331,0.331,0.332,0.332,0.333,0.333,0.334,0.334,0.335,0.335,0.336,0.336,0.337,0.337,0.338,0.339,0.339,0.34,0.341,0.341,0.342,0.342,0.342,0.342,0.342,0.343,0.343,0.343,0.343,0.343,0.344,0.344,0.344,0.345,0.345,0.345,0.345,0.345,0.345,0.345,0.346,0.346,0.346,0.346,0.346,0.346,0.346,0.346,0.346,0.346,0.346,0.345,0.345,0.345,0.345,0.345,0.345,0.345,0.344,0.344,0.344,0.344,0.344,0.344,0.344,0.344,0.344,0.344,0.344,0.344,0.344,0.344,0.344,0.344,0.344,0.344,0.344,0.344,0.344,0.344,0.344,0.344,0.343,0.343,0.343,0.343,0.343,0.343,0.342,0.342,0.342,0.342,0.342,0.341,0.341,0.341,0.341,0.341,0.34,0.34,0.34,0.34,0.34,0.34,0.339,0.339,0.339,0.339,0.339,0.339,0.339,0.339,0.339,0.339,0.339,0.338,0.338,0.338,0.338,0.338,0.338,0.338,0.338,0.337,0.337,0.337,0.337,0.337,0.337,0.336,0.336,0.336,0.335,0.335,0.335,0.334,0.334,0.333,0.333,0.332,0.332,0.331,0.331,0.33,0.33,0.329,0.329,0.328,0.328,0.328,0.328,0.327,0.327,0.326,0.326,0.325,0.325,0.324,0.324,0.323,0.323,0.322,0.322,0.321,0.321,0.32,0.32,0.319,0.319,0.318,0.317,0.317,0.316,0.315,0.314,0.314,0.313,0.312,0.311,0.31,0.309,0.308,0.308,0.307,0.306,0.305,0.304,0.303,0.303,0.302,0.301,0.3,0.299,0.298,0.297,0.296,0.296,0.295,0.294,0.294,0.293,0.292,0.292,0.291,0.291,0.29,0.289,0.289,0.288,0.287,0.287,0.286,0.286,0.285,0,0,0,0,0,0,0,0,0,0,0,0,0,0,0,0,0,0,0,0.261,0.261,0.261,0.261,0.26,0.26,0.26,0.259,0.259,0.259,0.258,0.258,0.258,0.257,0,0,0,0,0,0.431,0.43,0.429,0.428,0.428,0.427,0.427,0.426,0.426,0.425,0.425,0.425,0.425,0.424,0.424,0.424,0.423,0.423,0.423,0.423,0.423,0.423,0.423,0.423,0.423,0.423,0.423,0.423,0.423,0.424,0.423,0.423,0.423,0.423,0.423,0.423,0.423,0.423,0.423,0.423,0.423,0.423,0.423,0.423,0.423,0.423,0.422,0.422,0.422,0.422,0.422,0.422,0.422,0.422,0.422,0.422,0.421,0.421,0.42,0.42,0.42,0.419,0.419,0.419,0.419,0.42,0.421,0.421,0.422,0.423,0.423,0.424,0.424,0.424,0.424,0.424,0.424,0.424,0.424,0.424,0.424,0.424,0.424,0.425,0.425,0.425,0.425,0.425,0.425,0.426,0.426,0.426,0.426,0.426,0.426,0.425,0.425,0.425,0.424,0.423,0.422,0.421,0.421,0.42,0.419,0.418,0.417,0.416,0.415,0.415,0,0,0,0,0,0,0,0,0,0,0,0,0,0,0,0,0
0,0,0,0,0,0,0,0,0,0,0,0,0,0,0,0,0,0,0,0,0,0,0,0,0,0,0,0,0,0.452,0.453,0.453,0.454,0.454,0.454,0.454,0.454,0.454,0.454,0.454,0.454,0.455,0.455,0.455,0.456,0.457,0.457,0.458,0.459,0.46,0.46,0.46,0.461,0.461,0.461,0.46,0.46,0.459,0.458,0.458,0.457,0.457,0.457,0.457,0.456,0.456,0.456,0.456,0.456,0.455,0.455,0.455,0.454,0.454,0.454,0.454,0.453,0.453,0.453,0.453,0.453,0.454,0.454,0.454,0.455,0.456,0.456,0.457,0.458,0.459,0.46,0.461,0,0,0,0,0,0,0,0,0,0,0,0,0,0,0,0,0,0,0,0,0,0,0,0,0,0,0,0,0,0,0,0,0.273,0.273,0.273,0.274,0.274,0.274,0.275,0.275,0.276,0.277,0.277,0.278,0.279,0.279,0.28,0.281,0.281,0.282,0.283,0.283,0.284,0.285,0.286,0.287,0.288,0.289,0.29,0.292,0.293,0.294,0.295,0.296,0.297,0.298,0.299,0.3,0.301,0.301,0.302,0.302,0.303,0.303,0.303,0.304,0.305,0.305,0.306,0.307,0.308,0.309,0.309,0.31,0.311,0.311,0.312,0.313,0.314,0.314,0.315,0.316,0.316,0.317,0.318,0.318,0.319,0.319,0.32,0.32,0.321,0.321,0.322,0.322,0.323,0.323,0.324,0.324,0.325,0.325,0.326,0.326,0.327,0.327,0.328,0.328,0.329,0.329,0.329,0.33,0.33,0.331,0.331,0.332,0.332,0.333,0.333,0.333,0.334,0.335,0.335,0.336,0.336,0.337,0.338,0.339,0.339,0.34,0.341,0.341,0.342,0.342,0.342,0.342,0.342,0.343,0.343,0.343,0.343,0.343,0.344,0.344,0.344,0.345,0.345,0.345,0.345,0.345,0.345,0.345,0.345,0.345,0.346,0.346,0.346,0.345,0.346,0.345,0.345,0.345,0.346,0.345,0.345,0.345,0.345,0.345,0.345,0.345,0.344,0.344,0.344,0.344,0.344,0.344,0.344,0.344,0.344,0.344,0.344,0.344,0.344,0.344,0.344,0.344,0.344,0.344,0.344,0.344,0.344,0.344,0.344,0.344,0.343,0.343,0.343,0.343,0.343,0.343,0.343,0.342,0.342,0.342,0.342,0.342,0.341,0.341,0.341,0.341,0.341,0.34,0.34,0.34,0.34,0.34,0.34,0.339,0.339,0.339,0.339,0.339,0.339,0.339,0.339,0.339,0.339,0.339,0.338,0.338,0.338,0.338,0.338,0.338,0.337,0.337,0.337,0.337,0.337,0.337,0.337,0.336,0.336,0.336,0.336,0.335,0.335,0.334,0.334,0.333,0.333,0.332,0.331,0.331,0.33,0.33,0.329,0.329,0.329,0.328,0.328,0.328,0.328,0.327,0.327,0.326,0.326,0.325,0.325,0.324,0.324,0.323,0.323,0.322,0.322,0.321,0.321,0.32,0.319,0.319,0.318,0.318,0.317,0.316,0.316,0.315,0.314,0.313,0.313,0.311,0.311,0.31,0.309,0.308,0.307,0.306,0.306,0.305,0.304,0.303,0.302,0.301,0.3,0.299,0.299,0.298,0.297,0.296,0.295,0.295,0.294,0.293,0.293,0.292,0.292,0.291,0.29,0.29,0.289,0.289,0.288,0.288,0.287,0.286,0.286,0.286,0.285,0.284,0.283,0.282,0,0,0,0,0,0,0,0,0,0,0,0,0,0,0,0,0,0,0.259,0.259,0.259,0.259,0.258,0.258,0.258,0.258,0.257,0.257,0.257,0.257,0.257,0.257,0.257,0,0,0,0.428,0.427,0.426,0.425,0.425,0.424,0.424,0.423,0.423,0.423,0.423,0.423,0.422,0.422,0.422,0.422,0.421,0.421,0.421,0.421,0.421,0.421,0.421,0.421,0.421,0.421,0.421,0.421,0.421,0.421,0.421,0.421,0.421,0.421,0.421,0.421,0.421,0.421,0.421,0.421,0.421,0.421,0.421,0.421,0.421,0.421,0.421,0.421,0.421,0.421,0.421,0.421,0.421,0.42,0.42,0.419,0.419,0.419,0.418,0.418,0.417,0.417,0.418,0.419,0.419,0.42,0.42,0.421,0.421,0.422,0.422,0.422,0.422,0.422,0.422,0.422,0.422,0.422,0.422,0.422,0.422,0.423,0.423,0.423,0.423,0.423,0.423,0.424,0.424,0.424,0.424,0.424,0.424,0.424,0.423,0.423,0.423,0.422,0.421,0.42,0.419,0.419,0.418,0.417,0.417,0.416,0.415,0.415,0,0,0,0,0,0,0,0,0,0,0,0,0,0,0,0,0
0,0,0,0,0,0,0,0,0,0,0,0,0,0,0,0,0,0,0,0,0,0,0,0,0,0,0,0,0,0.451,0.451,0.452,0.453,0.453,0.453,0.453,0.453,0.453,0.453,0.453,0.453,0.453,0.454,0.454,0.454,0.455,0.456,0.457,0.457,0.458,0.458,0.459,0.459,0.459,0.458,0.458,0.457,0.457,0.456,0.456,0.455,0.455,0.454,0.455,0.454,0.454,0.454,0.454,0.454,0.453,0.453,0.453,0.452,0.452,0.452,0.452,0.452,0.452,0.452,0.452,0.452,0.453,0.453,0.453,0.454,0.455,0.455,0.456,0.457,0.458,0,0,0,0,0,0,0,0,0,0,0,0,0,0,0,0,0,0,0,0,0,0,0,0,0,0,0,0,0,0,0,0,0,0.273,0.273,0.272,0.273,0.273,0.273,0.274,0.274,0.275,0.275,0.276,0.277,0.278,0.279,0.279,0.28,0.281,0.282,0.282,0.283,0.284,0.285,0.286,0.286,0.287,0.288,0.289,0.29,0.292,0.293,0.294,0.295,0.296,0.297,0.298,0.299,0.3,0.3,0.301,0.301,0.302,0.302,0.303,0.303,0.304,0.305,0.305,0.306,0.307,0.308,0.308,0.309,0.31,0.311,0.311,0.312,0.313,0.313,0.314,0.315,0.316,0.316,0.317,0.317,0.318,0.319,0.319,0.319,0.32,0.32,0.321,0.322,0.322,0.322,0.323,0.323,0.324,0.324,0.325,0.325,0.326,0.327,0.327,0.328,0.328,0.328,0.329,0.329,0.329,0.33,0.33,0.331,0.331,0.332,0.332,0.333,0.333,0.333,0.334,0.335,0.335,0.336,0.337,0.337,0.338,0.339,0.339,0.34,0.341,0.341,0.342,0.342,0.342,0.342,0.343,0.343,0.343,0.343,0.343,0.343,0.344,0.344,0.344,0.345,0.345,0.345,0.345,0.345,0.345,0.345,0.345,0.345,0.345,0.345,0.345,0.345,0.345,0.345,0.345,0.345,0.345,0.345,0.345,0.345,0.345,0.345,0.344,0.344,0.344,0.344,0.344,0.344,0.344,0.344,0.344,0.344,0.344,0.344,0.344,0.344,0.344,0.344,0.344,0.344,0.344,0.344,0.344,0.344,0.344,0.344,0.344,0.344,0.343,0.343,0.343,0.343,0.343,0.343,0.343,0.342,0.342,0.342,0.342,0.342,0.341,0.341,0.341,0.341,0.341,0.34,0.34,0.34,0.34,0.34,0.34,0.339,0.339,0.339,0.339,0.339,0.339,0.339,0.339,0.339,0.338,0.338,0.338,0.338,0.338,0.338,0.337,0.337,0.337,0.337,0.337,0.337,0.337,0.337,0.337,0.336,0.336,0.336,0.335,0.335,0.335,0.334,0.333,0.333,0.332,0.331,0.331,0.33,0.33,0.329,0.329,0.329,0.328,0.328,0.328,0.328,0.327,0.327,0.326,0.326,0.325,0.325,0.324,0.324,0.323,0.323,0.322,0.322,0.321,0.32,0.32,0.319,0.319,0.318,0.318,0.317,0.316,0.315,0.314,0.314,0.313,0.312,0.311,0.31,0.309,0.309,0.308,0.307,0.306,0.305,0.304,0.304,0.303,0.302,0.301,0.3,0.299,0.298,0.297,0.297,0.296,0.295,0.295,0.294,0.293,0.292,0.292,0.292,0.291,0.29,0.29,0.289,0.289,0.288,0.288,0.287,0.287,0.286,0.286,0.285,0.284,0.282,0,0,0,0,0,0,0,0,0,0,0,0,0,0,0,0,0,0,0.258,0.258,0.258,0.258,0.258,0.257,0.257,0.257,0.257,0.257,0.257,0.257,0.256,0.256,0.256,0.256,0.256,0,0,0.427,0.425,0.425,0.424,0.423,0.423,0.422,0.422,0.421,0.421,0.421,0.421,0.421,0.421,0.42,0.42,0.42,0.419,0.419,0.419,0.419,0.418,0.418,0.419,0.419,0.418,0.418,0.419,0.419,0.419,0.419,0.419,0.419,0.419,0.419,0.419,0.419,0.419,0.419,0.419,0.419,0.419,0.419,0.419,0.419,0.419,0.419,0.419,0.419,0.419,0.419,0.419,0.418,0.418,0.417,0.417,0.417,0.417,0.416,0.416,0.416,0.416,0.416,0.417,0.417,0.418,0.418,0.419,0.419,0.42,0.42,0.42,0.42,0.42,0.42,0.42,0.42,0.42,0.42,0.42,0.42,0.421,0.421,0.421,0.421,0.421,0.421,0.422,0.422,0.422,0.422,0.422,0.422,0.422,0.421,0.421,0.421,0.42,0.419,0.419,0.418,0.418,0.417,0.417,0.416,0.416,0.415,0,0,0,0,0,0,0,0,0,0,0,0,0,0,0,0,0,0
0,0,0,0,0,0,0,0,0,0,0,0,0,0,0,0,0,0,0,0,0,0,0,0,0,0,0,0.449,0.45,0.449,0.45,0.451,0.451,0.451,0.451,0.451,0.451,0.451,0.451,0.451,0.451,0.451,0.451,0.452,0.452,0.453,0.453,0.454,0.455,0.455,0.455,0.456,0.456,0.455,0.455,0.455,0.454,0.454,0.453,0.453,0.452,0.452,0.452,0.452,0.452,0.452,0.451,0.451,0.451,0.451,0.451,0.45,0.45,0.45,0.45,0.45,0.45,0.45,0.45,0.45,0.451,0.451,0.452,0.452,0.453,0.453,0,0,0,0,0,0,0,0,0,0,0,0,0,0,0,0,0,0,0,0,0,0,0,0,0,0,0,0,0,0,0,0,0,0,0,0,0.271,0.271,0.271,0.272,0.272,0.272,0.273,0.273,0.274,0.274,0.275,0.276,0.277,0.278,0.279,0.28,0.28,0.281,0.282,0.282,0.283,0.284,0.285,0.286,0.287,0.288,0.289,0.29,0.291,0.292,0.293,0.294,0.295,0.296,0.297,0.298,0.299,0.299,0.3,0.3,0.301,0.301,0.302,0.303,0.303,0.304,0.304,0.305,0.306,0.307,0.308,0.308,0.309,0.31,0.311,0.311,0.312,0.313,0.313,0.314,0.315,0.315,0.316,0.317,0.317,0.318,0.318,0.319,0.319,0.319,0.32,0.32,0.321,0.322,0.322,0.323,0.323,0.324,0.324,0.325,0.325,0.326,0.326,0.327,0.327,0.328,0.328,0.328,0.329,0.329,0.329,0.33,0.33,0.331,0.331,0.332,0.332,0.333,0.333,0.334,0.334,0.335,0.336,0.336,0.337,0.338,0.339,0.339,0.34,0.341,0.341,0.342,0.342,0.342,0.342,0.342,0.343,0.343,0.343,0.343,0.343,0.344,0.344,0.344,0.344,0.345,0.345,0.345,0.345,0.345,0.345,0.345,0.345,0.345,0.345,0.345,0.345,0.345,0.345,0.345,0.345,0.345,0.345,0.345,0.345,0.345,0.345,0.345,0.344,0.344,0.344,0.344,0.344,0.344,0.344,0.344,0.344,0.344,0.344,0.344,0.344,0.344,0.344,0.344,0.344,0.344,0.344,0.344,0.344,0.344,0.344,0.344,0.344,0.344,0.343,0.343,0.343,0.343,0.343,0.343,0.343,0.342,0.342,0.342,0.342,0.342,0.341,0.341,0.341,0.341,0.341,0.34,0.34,0.34,0.34,0.34,0.34,0.339,0.339,0.339,0.339,0.339,0.339,0.339,0.338,0.338,0.338,0.338,0.338,0.338,0.337,0.337,0.337,0.337,0.337,0.337,0.337,0.337,0.337,0.337,0.337,0.336,0.336,0.336,0.336,0.335,0.335,0.334,0.333,0.332,0.332,0.331,0.33,0.33,0.329,0.329,0.329,0.328,0.328,0.328,0.327,0.327,0.327,0.326,0.325,0.325,0.325,0.324,0.324,0.323,0.323,0.322,0.321,0.321,0.32,0.32,0.319,0.319,0.318,0.317,0.317,0.316,0.315,0.314,0.314,0.313,0.312,0.311,0.31,0.309,0.308,0.308,0.307,0.306,0.305,0.304,0.303,0.302,0.301,0.3,0.3,0.299,0.298,0.297,0.297,0.296,0.295,0.295,0.294,0.293,0.292,0.292,0.291,0.291,0.29,0.289,0.289,0.289,0.288,0.288,0.287,0.286,0.286,0.285,0.285,0,0.281,0.28,0.278,0.276,0,0,0,0,0,0,0,0,0,0,0,0,0,0.257,0.257,0.257,0.256,0.256,0.256,0.256,0.256,0.256,0.256,0.256,0.256,0.256,0.256,0.256,0.256,0.256,0.256,0.256,0.256,0,0,0,0.423,0.422,0.422,0.421,0.421,0.42,0.42,0.42,0.419,0.419,0.419,0.419,0.419,0.419,0.418,0.418,0.417,0.417,0.417,0.417,0.416,0.416,0.416,0.416,0.416,0.416,0.417,0.417,0.417,0.417,0.417,0.417,0.417,0.417,0.417,0.417,0.417,0.417,0.417,0.417,0.417,0.417,0.417,0.417,0.416,0.416,0.416,0.416,0.416,0.416,0.416,0.416,0.415,0.415,0.415,0.415,0.414,0.415,0.414,0.414,0.415,0.415,0.416,0.416,0.417,0.417,0.417,0.418,0.418,0.418,0.418,0.418,0.418,0.418,0.418,0.418,0.418,0.418,0.418,0.419,0.419,0.419,0.419,0.419,0.419,0.419,0.419,0.42,0.42,0.42,0.42,0.42,0.419,0.419,0.419,0.418,0.417,0.417,0.417,0.416,0.416,0.416,0.416,0,0,0,0,0,0,0,0,0,0,0,0,0,0,0,0,0,0,0,0
0,0,0,0,0,0,0,0,0,0,0,0,0,0,0,0,0,0,0,0,0,0,0,0,0,0.446,0.447,0.447,0.448,0.448,0.448,0.449,0.449,0.449,0.449,0.449,0.449,0.448,0.448,0.448,0.448,0.449,0.449,0.449,0.45,0.45,0.451,0.451,0.451,0.452,0.452,0.452,0.452,0.452,0.451,0.451,0.451,0.45,0.45,0.45,0.449,0.449,0.449,0.449,0.45,0.45,0.449,0.449,0.449,0.449,0.449,0.449,0.448,0.448,0.448,0.448,0.448,0.448,0.448,0.449,0.449,0.45,0.451,0.451,0.452,0.453,0.453,0,0,0,0,0,0,0,0,0,0,0,0,0,0,0,0,0,0,0,0,0,0,0,0,0,0,0,0,0,0,0,0,0,0,0,0.27,0.27,0.27,0.27,0.271,0.271,0.272,0.272,0.273,0.273,0.274,0.275,0.276,0.277,0.279,0.28,0.281,0.281,0.282,0.283,0.283,0.284,0.285,0.286,0.287,0.288,0.289,0.29,0.291,0.292,0.293,0.294,0.295,0.296,0.297,0.297,0.298,0.299,0.299,0.3,0.3,0.301,0.302,0.302,0.303,0.304,0.304,0.305,0.306,0.307,0.307,0.308,0.309,0.31,0.311,0.311,0.312,0.312,0.313,0.314,0.314,0.315,0.316,0.316,0.317,0.317,0.318,0.318,0.319,0.319,0.319,0.32,0.321,0.321,0.322,0.322,0.323,0.323,0.324,0.325,0.325,0.326,0.326,0.327,0.327,0.327,0.328,0.328,0.328,0.328,0.329,0.329,0.329,0.33,0.331,0.331,0.332,0.332,0.333,0.333,0.334,0.335,0.335,0.336,0.337,0.338,0.339,0.339,0.34,0.341,0.341,0.341,0.342,0.342,0.342,0.342,0.343,0.343,0.343,0.343,0.343,0.343,0.344,0.344,0.344,0.344,0.345,0.345,0.345,0.345,0.345,0.345,0.345,0.345,0.345,0.345,0.345,0.345,0.345,0.345,0.345,0.345,0.345,0.345,0.345,0.345,0.345,0.345,0.344,0.344,0.344,0.344,0.344,0.344,0.344,0.344,0.344,0.344,0.344,0.344,0.344,0.344,0.344,0.344,0.344,0.344,0.344,0.344,0.344,0.344,0.344,0.344,0.344,0.344,0.344,0.343,0.343,0.343,0.343,0.343,0.343,0.343,0.342,0.342,0.342,0.342,0.342,0.341,0.341,0.341,0.341,0.341,0.34,0.34,0.34,0.34,0.34,0.339,0.339,0.339,0.339,0.339,0.339,0.338,0.338,0.338,0.338,0.338,0.338,0.337,0.337,0.337,0.337,0.337,0.337,0.337,0.337,0.337,0.337,0.337,0.337,0.337,0.336,0.336,0.336,0.336,0.335,0.334,0.333,0.333,0.332,0.331,0.331,0.33,0.329,0.329,0.329,0.328,0.328,0.328,0.327,0.327,0.326,0.326,0.325,0.325,0.325,0.324,0.324,0.323,0.323,0.322,0.321,0.321,0.32,0.319,0.319,0.318,0.318,0.317,0.316,0.315,0.315,0.314,0.313,0.312,0.311,0.31,0.31,0.309,0.308,0.307,0.307,0.306,0.305,0.304,0.303,0.302,0.301,0.3,0.3,0.299,0.298,0.297,0.297,0.296,0.295,0.294,0.294,0.293,0.292,0.291,0.291,0.29,0.29,0.289,0.289,0.288,0.288,0.287,0.287,0.286,0.286,0.285,0.284,0,0.28,0,0,0,0.274,0,0,0,0,0,0,0,0,0,0,0,0,0.255,0.255,0.255,0.255,0.255,0.255,0.255,0.255,0.255,0.255,0.255,0.255,0.256,0.256,0.256,0.256,0.256,0.256,0.256,0.256,0.255,0.255,0,0,0.421,0.42,0.42,0.419,0.419,0.419,0.418,0.418,0.418,0.417,0.417,0.417,0.417,0.417,0.416,0.416,0.415,0.415,0.415,0.415,0.414,0.414,0.414,0.414,0.415,0.415,0.415,0.415,0.415,0.415,0.415,0.415,0.415,0.415,0.415,0.415,0.415,0.415,0.415,0.415,0.414,0.414,0.414,0.414,0.414,0.414,0.414,0.414,0.414,0.414,0.413,0.413,0.413,0.413,0.413,0.413,0.413,0.413,0.413,0.413,0.413,0.414,0.414,0.415,0.415,0.415,0.416,0.416,0.416,0.416,0.417,0.417,0.416,0.417,0.417,0.416,0.416,0.416,0.417,0.417,0.417,0.417,0.417,0.417,0.417,0.417,0.417,0.417,0.417,0.417,0.417,0.417,0.417,0.416,0.416,0.415,0.415,0.415,0.415,0.415,0.414,0.414,0,0,0,0,0,0,0,0,0,0,0,0,0,0,0,0,0,0,0,0
0,0,0,0,0,0,0,0,0,0,0,0,0,0,0,0,0,0,0,0,0,0,0,0.445,0.445,0.445,0.446,0.446,0.446,0.446,0.446,0.447,0.446,0.447,0.446,0.446,0.446,0.446,0.446,0.446,0.446,0.446,0.446,0.447,0.447,0.447,0.448,0.448,0.448,0.448,0.448,0.449,0.449,0.449,0.448,0.448,0.448,0.447,0.447,0.447,0.447,0.447,0.447,0.447,0.447,0.447,0.447,0.447,0.447,0.447,0.447,0.447,0.447,0.446,0.446,0.446,0.447,0.447,0.447,0.447,0.448,0.449,0.45,0.45,0.451,0.452,0.453,0,0,0,0,0,0,0,0,0,0,0,0,0,0,0,0,0,0,0,0,0,0,0,0,0,0,0,0,0,0,0,0,0,0.269,0.269,0.269,0.269,0.269,0.269,0.27,0.27,0.271,0.271,0.272,0.273,0.273,0.275,0,0,0.279,0.28,0.281,0.282,0.282,0.283,0.284,0.285,0.285,0.286,0.288,0.289,0.289,0.291,0.291,0.292,0.293,0.294,0.295,0.295,0.296,0.297,0.298,0.298,0.299,0.3,0.3,0.301,0.301,0.302,0.303,0.303,0.304,0.305,0.306,0.306,0.307,0.308,0.309,0.31,0.31,0.311,0.312,0.312,0.313,0.314,0.314,0.315,0.315,0.316,0.316,0.317,0.317,0.318,0.318,0.319,0.319,0.319,0.32,0.321,0.321,0.322,0.323,0.323,0.324,0.324,0.325,0.325,0.326,0.326,0.327,0.327,0.327,0.328,0.328,0.328,0.328,0.329,0.329,0.33,0.33,0.331,0.331,0.332,0.333,0.333,0.334,0.335,0.335,0.336,0.337,0.338,0.338,0.339,0.34,0.34,0.341,0.341,0.341,0.342,0.342,0.342,0.342,0.343,0.343,0.343,0.343,0.343,0.344,0.344,0.344,0.344,0.344,0.344,0.345,0.345,0.345,0.345,0.345,0.345,0.345,0.345,0.345,0.345,0.345,0.345,0.345,0.345,0.345,0.345,0.345,0.345,0.345,0.345,0.344,0.344,0.344,0.344,0.344,0.344,0.344,0.344,0.344,0.344,0.344,0.344,0.344,0.344,0.344,0.344,0.344,0.344,0.344,0.343,0.344,0.344,0.344,0.344,0.344,0.344,0.343,0.343,0.343,0.343,0.343,0.343,0.343,0.343,0.343,0.342,0.342,0.342,0.342,0.342,0.341,0.341,0.341,0.341,0.34,0.34,0.34,0.34,0.339,0.339,0.339,0.339,0.339,0.339,0.338,0.338,0.338,0.338,0.338,0.338,0.337,0.337,0.337,0.337,0.337,0.337,0.337,0.337,0.337,0.337,0.337,0.337,0.337,0.337,0.337,0.336,0.336,0.336,0.335,0.335,0.334,0.333,0.332,0.332,0.331,0.33,0.33,0.329,0.329,0.328,0.328,0.328,0.327,0.327,0.326,0.326,0.325,0.325,0.324,0.324,0.324,0.323,0.323,0.322,0.321,0.321,0.32,0.319,0.319,0.318,0.317,0.317,0.316,0.315,0.314,0.313,0.312,0.311,0.311,0.31,0.309,0.308,0.308,0.307,0.306,0.306,0.305,0.304,0.303,0.302,0.301,0.3,0.3,0.299,0.298,0.297,0.297,0.296,0.295,0.294,0.293,0.293,0.292,0.291,0.29,0.29,0.289,0.289,0.288,0.288,0.287,0.287,0.286,0.286,0.285,0.284,0,0,0,0,0,0.274,0.273,0,0,0,0,0,0,0,0,0,0,0,0,0.254,0.254,0.254,0.254,0.254,0.254,0.254,0.254,0.254,0.254,0.255,0.255,0.255,0.256,0.256,0.256,0.256,0.256,0.256,0.255,0.255,0.255,0,0,0,0.419,0.418,0.418,0.417,0.417,0.416,0.416,0.416,0.415,0.415,0.415,0.415,0.415,0.414,0.414,0.413,0.413,0.413,0.412,0.412,0.412,0.412,0.412,0.412,0.412,0.412,0.413,0.413,0.413,0.413,0.413,0.413,0.413,0.413,0.413,0.413,0.413,0.413,0.412,0.412,0.412,0.412,0.412,0.412,0.412,0.412,0.412,0.412,0.411,0.411,0.411,0.411,0.411,0.411,0.411,0.411,0.411,0.411,0.412,0.412,0.412,0.413,0.413,0.413,0.414,0.414,0.414,0.415,0.415,0.415,0.415,0.415,0.415,0.415,0.415,0.415,0.415,0.415,0.415,0.415,0.415,0.415,0.415,0.415,0.415,0.415,0.415,0.415,0.415,0.415,0.415,0.414,0.414,0.413,0.413,0.413,0.413,0.413,0.413,0.413,0.413,0,0,0,0,0,0,0,0,0,0,0,0,0,0,0,0,0,0,0,0
0,0,0,0,0,0,0,0,0,0,0,0,0,0,0,0,0,0,0,0,0,0,0,0.444,0.444,0.444,0.444,0.444,0.444,0.444,0.444,0.444,0.444,0.444,0.444,0.444,0.443,0.443,0.443,0.443,0.443,0.443,0.443,0.444,0.444,0.444,0.445,0.445,0.445,0.445,0.445,0.445,0.445,0.445,0.444,0.445,0.444,0.444,0.444,0.444,0.444,0.444,0.445,0.445,0.445,0.445,0.445,0.445,0.445,0.445,0.445,0.445,0.445,0.445,0.445,0.445,0.445,0.445,0.446,0.446,0.447,0.448,0.449,0.45,0.45,0.451,0,0,0,0,0,0,0,0,0,0,0,0,0,0,0,0,0,0,0,0,0,0,0,0,0,0,0,0,0,0,0,0,0,0,0.268,0.268,0.268,0.268,0.268,0.268,0.269,0.269,0.27,0.27,0.271,0.272,0.273,0.274,0,0,0,0.281,0.282,0.282,0.283,0.283,0.284,0.285,0.286,0.287,0.288,0.289,0.29,0.291,0.292,0.292,0.293,0.294,0.295,0.295,0.296,0.297,0.297,0.298,0.299,0.299,0.3,0.3,0.301,0.302,0.303,0.303,0.304,0.305,0.306,0.306,0.307,0.308,0.309,0.31,0.31,0.311,0.311,0.312,0.312,0.313,0.314,0.314,0.315,0.315,0.316,0.316,0.317,0.317,0.318,0.318,0.318,0.319,0.32,0.32,0.321,0.322,0.322,0.323,0.323,0.324,0.324,0.325,0.325,0.326,0.326,0.326,0.327,0.327,0.328,0.328,0.328,0.328,0.329,0.33,0.33,0.331,0.331,0.332,0.333,0.333,0.334,0.335,0.335,0.336,0.337,0.337,0.338,0.339,0.339,0.34,0.34,0.341,0.341,0.341,0.342,0.342,0.342,0.342,0.343,0.343,0.343,0.343,0.343,0.344,0.344,0.344,0.344,0.344,0.344,0.345,0.345,0.345,0.345,0.345,0.345,0.345,0.345,0.345,0.345,0.345,0.345,0.345,0.345,0.345,0.345,0.345,0.345,0.345,0.344,0.344,0.344,0.344,0.344,0.344,0.344,0.344,0.344,0.344,0.344,0.344,0.343,0.343,0.343,0.343,0.343,0.343,0.343,0.344,0.343,0.343,0.343,0.343,0.344,0.343,0.343,0.343,0.343,0.343,0.343,0.343,0.343,0.343,0.343,0.342,0.342,0.342,0.342,0.342,0.342,0.341,0.341,0.341,0.34,0.34,0.34,0.34,0.339,0.339,0.339,0.339,0.339,0.338,0.338,0.338,0.338,0.338,0.338,0.337,0.337,0.337,0.337,0.337,0.337,0.337,0.337,0.337,0.337,0.337,0.337,0.337,0.337,0.337,0.337,0.337,0.336,0.336,0.335,0.335,0.334,0.333,0.333,0.332,0.331,0.33,0.33,0.329,0.329,0.329,0.328,0.328,0.327,0.327,0.326,0.325,0.325,0.325,0.324,0.324,0.323,0.323,0.322,0.322,0.321,0.321,0.32,0.319,0.319,0.318,0.317,0.316,0.316,0.314,0.314,0.313,0.312,0.311,0.31,0.309,0.309,0.308,0.307,0.307,0.306,0.305,0.304,0.303,0.303,0.302,0.301,0.3,0.3,0.299,0.298,0.297,0.297,0.296,0.296,0.295,0.293,0.293,0.292,0.291,0.29,0.289,0.289,0.288,0.288,0.287,0.287,0.286,0.286,0.285,0.284,0.283,0.283,0,0,0.278,0,0.274,0.273,0.272,0.271,0.27,0,0,0,0,0,0,0,0,0,0.254,0.254,0.254,0.254,0.254,0.254,0.254,0.254,0.254,0.254,0.254,0.255,0.255,0.255,0.255,0.256,0.256,0.256,0.256,0.255,0.255,0.255,0,0,0,0.417,0.416,0.416,0.415,0.415,0.414,0.414,0.414,0.413,0.413,0.413,0.413,0.413,0.412,0.412,0.412,0.411,0.411,0.41,0.41,0.41,0.41,0.41,0.41,0.41,0.41,0.41,0.411,0.411,0.411,0.411,0.411,0.411,0.411,0.411,0.411,0.411,0.41,0.41,0.41,0.41,0.41,0.41,0.409,0.409,0.409,0.409,0.409,0.409,0.409,0.409,0.409,0.409,0.409,0.409,0.41,0.41,0.41,0.41,0.41,0.411,0.411,0.411,0.412,0.412,0.412,0.412,0.413,0.413,0.413,0.413,0.413,0.413,0.413,0.413,0.413,0.413,0.413,0.412,0.412,0.412,0.412,0.412,0.412,0.412,0.412,0.412,0.412,0.412,0.412,0.412,0.412,0.411,0.411,0.411,0.411,0.41,0.411,0.411,0.411,0,0,0,0,0,0,0,0,0,0,0,0,0,0,0,0,0,0,0,0,0
0,0,0,0,0,0,0,0,0,0,0,0,0,0,0,0,0,0,0,0,0,0,0.443,0.443,0.443,0.442,0.442,0.442,0.442,0.441,0.441,0.441,0.441,0.441,0.441,0.441,0.441,0.441,0.441,0.441,0.441,0.441,0.44,0.441,0.441,0.441,0.441,0.441,0.441,0.441,0.441,0.441,0.441,0.441,0.441,0.441,0.441,0.441,0.441,0.441,0.441,0.442,0.442,0.443,0.443,0.443,0.443,0.444,0.444,0.444,0.444,0.443,0.443,0.443,0.443,0.443,0.444,0.444,0.445,0.445,0.446,0.447,0.448,0.449,0,0,0,0,0,0,0,0,0,0,0,0,0,0,0,0,0,0,0,0,0,0,0,0,0,0,0,0,0,0,0,0,0,0,0,0.267,0.267,0.267,0,0.267,0.267,0.267,0.268,0.268,0.268,0.269,0.27,0.271,0.272,0,0,0,0,0.281,0.282,0.283,0.283,0.284,0.285,0.285,0.286,0.287,0.288,0.289,0.29,0.291,0.292,0.292,0.293,0.294,0.294,0.295,0.296,0.296,0.297,0.298,0.298,0.299,0.3,0.3,0.301,0.302,0.303,0.303,0.304,0.305,0.306,0.306,0.307,0.308,0.309,0.309,0.31,0.31,0.311,0.311,0.312,0.313,0.313,0.314,0.314,0.315,0.315,0.316,0.316,0.317,0.317,0.317,0.318,0.318,0.319,0.32,0.32,0.321,0.322,0.322,0.323,0.324,0.324,0.324,0.325,0.325,0.326,0.326,0.327,0.327,0.327,0.328,0.328,0.328,0.329,0.329,0.33,0.331,0.331,0.332,0.332,0.333,0.334,0.335,0.335,0.336,0.337,0.337,0.338,0.339,0.339,0.34,0.34,0.341,0.341,0.341,0.341,0.342,0.342,0.342,0.343,0.343,0.343,0.343,0.343,0.344,0.344,0.344,0.344,0.344,0.344,0.344,0.345,0.345,0.345,0.345,0.345,0.345,0.345,0.345,0.345,0.345,0.345,0.345,0.345,0.345,0.345,0.345,0.345,0.344,0.344,0.344,0.344,0.344,0.344,0.344,0.344,0.344,0.344,0.344,0.344,0.344,0.343,0.343,0.343,0.343,0.343,0.343,0.343,0.343,0.343,0.343,0.343,0.343,0.343,0.343,0.343,0.343,0.343,0.343,0.343,0.343,0.343,0.343,0.342,0.342,0.342,0.342,0.342,0.342,0.341,0.341,0.341,0.341,0.34,0.34,0.34,0.34,0.339,0.339,0.339,0.339,0.339,0.338,0.338,0.338,0.338,0.338,0.337,0.337,0.337,0.337,0.337,0.337,0.337,0.336,0.336,0.336,0.336,0.336,0.336,0.337,0.337,0.337,0.337,0.337,0.336,0.336,0.336,0.335,0.334,0.333,0.333,0.332,0.331,0.331,0.33,0.33,0.329,0.329,0.328,0.328,0.327,0.327,0.326,0.325,0.325,0.324,0.324,0.324,0.323,0.323,0.322,0.322,0.321,0.321,0.32,0.319,0.319,0.318,0.317,0.316,0.315,0.314,0.313,0.312,0.311,0.31,0.31,0.309,0.308,0.308,0.307,0.306,0.306,0.305,0.304,0.303,0.302,0.302,0.301,0.3,0.3,0.299,0.298,0.298,0.297,0.296,0.296,0.295,0.294,0.293,0.292,0.291,0.29,0.289,0.288,0.288,0.287,0.287,0.286,0.286,0.285,0.285,0.284,0.283,0.282,0.28,0.279,0,0,0.274,0.273,0.271,0.27,0,0,0,0,0,0,0,0,0.257,0.256,0.255,0.254,0.254,0.254,0.253,0.253,0.253,0.253,0.253,0.253,0.254,0.254,0.254,0.255,0.255,0.255,0.255,0.256,0.255,0.255,0.255,0.255,0,0,0,0,0,0.413,0.412,0.412,0.412,0.411,0.411,0.411,0.411,0.411,0.41,0.41,0.41,0.41,0.409,0.409,0.409,0.409,0.408,0.408,0.408,0.408,0.408,0.408,0.408,0.408,0.408,0.408,0.408,0.409,0.409,0.409,0.409,0.409,0.409,0.408,0.408,0.408,0.408,0.407,0.407,0.407,0.407,0.407,0.407,0.407,0.407,0.407,0.407,0.407,0.407,0.407,0.407,0.408,0.408,0.408,0.408,0.409,0.409,0.409,0.41,0.41,0.41,0.41,0.41,0.41,0.411,0.411,0.411,0.411,0.411,0.411,0.411,0.411,0.411,0.41,0.41,0.41,0.41,0.41,0.41,0.41,0.41,0.41,0.41,0.41,0.41,0.41,0.41,0.409,0.409,0.409,0.409,0.409,0.408,0.408,0.409,0.408,0.409,0,0,0,0,0,0,0,0,0,0,0,0,0,0,0,0,0,0,0,0,0
0,0,0,0,0,0,0,0,0,0,0,0,0,0,0,0,0,0,0,0,0,0,0.441,0.441,0.441,0.44,0.439,0.439,0.439,0.439,0.439,0.439,0.438,0.438,0.438,0.438,0.438,0.438,0.438,0.438,0.438,0.438,0.438,0.438,0.438,0.438,0.439,0.438,0.438,0.438,0.438,0.438,0.438,0.438,0.438,0.439,0.439,0.439,0.439,0.438,0.439,0.439,0.439,0.44,0.44,0.441,0.441,0.441,0.442,0.442,0.442,0.442,0.441,0.441,0.441,0.441,0.442,0.443,0.443,0.444,0.445,0,0,0,0,0,0,0,0,0,0,0,0,0,0,0,0,0,0,0,0,0,0,0,0,0,0,0,0,0,0,0,0,0,0,0,0,0.266,0.266,0.266,0,0.266,0.265,0.265,0.266,0.266,0.266,0.267,0.267,0.268,0.269,0.27,0.271,0,0,0,0.28,0.282,0.282,0.283,0.283,0.284,0.285,0.285,0.286,0.287,0.288,0.289,0.29,0.291,0.292,0.292,0.293,0.294,0.294,0.295,0.296,0.296,0.297,0.297,0.298,0.299,0.3,0.3,0.301,0.302,0.303,0.304,0.304,0.305,0.306,0.306,0.307,0.308,0.308,0.309,0.309,0.31,0.31,0.311,0.311,0.312,0.313,0.313,0.314,0.314,0.315,0.315,0.315,0.316,0.316,0.317,0.317,0.318,0.319,0.319,0.32,0.321,0.321,0.322,0.323,0.323,0.324,0.324,0.324,0.325,0.325,0.326,0.326,0.327,0.328,0.328,0.328,0.329,0.329,0.329,0.33,0.331,0.331,0.332,0.332,0.333,0.334,0.335,0.335,0.336,0.337,0.337,0.338,0.338,0.339,0.339,0.34,0.34,0.341,0.341,0.341,0.342,0.342,0.342,0.343,0.343,0.343,0.343,0.344,0.344,0.344,0.344,0.344,0.344,0.344,0.344,0.344,0.344,0.344,0.345,0.345,0.345,0.345,0.345,0.345,0.345,0.345,0.345,0.345,0.345,0.345,0.345,0.345,0.345,0.344,0.344,0.344,0.344,0.344,0.344,0.344,0.344,0.344,0.344,0.344,0.343,0.343,0.343,0.343,0.343,0.343,0.343,0.343,0.343,0.343,0.343,0.343,0.343,0.343,0.343,0.343,0.343,0.343,0.343,0.343,0.343,0.343,0.343,0.342,0.342,0.342,0.342,0.342,0.342,0.341,0.341,0.341,0.341,0.34,0.34,0.34,0.34,0.339,0.339,0.339,0.339,0.338,0.338,0.338,0.338,0.337,0.337,0.337,0.337,0.337,0.337,0.337,0.336,0.336,0.336,0.336,0.336,0.336,0.337,0.337,0.337,0.336,0.336,0.336,0.336,0.336,0.336,0.335,0.335,0.334,0.334,0.333,0.332,0.332,0.331,0.33,0.33,0.329,0.329,0.328,0.328,0.327,0.327,0.326,0.325,0.325,0.324,0.324,0.323,0.323,0.323,0.322,0.322,0.321,0.321,0.32,0.32,0.319,0.318,0.317,0.316,0.315,0.314,0.313,0.312,0.311,0.31,0.309,0.309,0.308,0.307,0.307,0.306,0.305,0.305,0.304,0.303,0.302,0.302,0.301,0.3,0.3,0.299,0.298,0.298,0.297,0.296,0.296,0.295,0.294,0.293,0.292,0.291,0.29,0.289,0.288,0.287,0.287,0.286,0.286,0.285,0.284,0.284,0.283,0.282,0.282,0.28,0.279,0,0,0.274,0.272,0.271,0,0.269,0,0,0,0,0,0,0,0,0.258,0.256,0.255,0.255,0.254,0.253,0.252,0.252,0.252,0.252,0.253,0.253,0.253,0.254,0.254,0.255,0.255,0.255,0.255,0.255,0.255,0.255,0.255,0,0,0,0,0,0.41,0.41,0.41,0.409,0.409,0.409,0.409,0.409,0.408,0.408,0.408,0.407,0.407,0.407,0.407,0.407,0.406,0.406,0.406,0.406,0.406,0.406,0.406,0.406,0.406,0.406,0.406,0.406,0.406,0.406,0.406,0.406,0.406,0.406,0.406,0.406,0.405,0.405,0.405,0.405,0.404,0.404,0.404,0.404,0.404,0.404,0.404,0.404,0.404,0.404,0.405,0.405,0.405,0.406,0.406,0.406,0.407,0.407,0.407,0.408,0.408,0.408,0.408,0.409,0.409,0.409,0.409,0.409,0.409,0.409,0.409,0.409,0.409,0.409,0.409,0.409,0.408,0.408,0.408,0.408,0.408,0.408,0.407,0.407,0.407,0.407,0.407,0.407,0.407,0.407,0.406,0.406,0.406,0.406,0.406,0.406,0.406,0.407,0,0,0,0,0,0,0,0,0,0,0,0,0,0,0,0,0,0,0,0,0.295
0,0,0,0,0,0,0,0,0,0,0,0,0,0,0,0,0,0,0,0,0,0,0.439,0.439,0.438,0.438,0.437,0.437,0.436,0.436,0.436,0.436,0.435,0.435,0.435,0.436,0.435,0.435,0.435,0.435,0.435,0.436,0.435,0.436,0.436,0.436,0.436,0.436,0.436,0.437,0.437,0.437,0.437,0.436,0.436,0.437,0.437,0.436,0.436,0.436,0.436,0.437,0.437,0.437,0.438,0.438,0.439,0.439,0.439,0.44,0.44,0.44,0.44,0.44,0.44,0.44,0.44,0.441,0.441,0.442,0,0,0,0,0,0,0,0,0,0,0,0,0,0,0,0,0,0,0,0,0,0,0,0,0,0,0,0,0,0,0,0,0,0,0,0,0,0,0,0.264,0.264,0.264,0.264,0.264,0.265,0.265,0.265,0.266,0.267,0.267,0,0.269,0.27,0,0,0,0.281,0.282,0.283,0.283,0.284,0.284,0.285,0.286,0.286,0.287,0.288,0.289,0.29,0.291,0.291,0.292,0.293,0.293,0.294,0.295,0.295,0.296,0.297,0.297,0.298,0.299,0.299,0.3,0.301,0.302,0.303,0.304,0.305,0.305,0.306,0.306,0.307,0.308,0.308,0.309,0.309,0.31,0.31,0.311,0.311,0.311,0.312,0.313,0.313,0.314,0.314,0.314,0.315,0.316,0.316,0.317,0.317,0.318,0.318,0.319,0.32,0.32,0.321,0.321,0.322,0.323,0.323,0.324,0.324,0.325,0.325,0.326,0.326,0.327,0.327,0.328,0.328,0.329,0.329,0.33,0.33,0.331,0.331,0.332,0.332,0.333,0.334,0.334,0.335,0.336,0.336,0.337,0.338,0.338,0.339,0.339,0.339,0.34,0.34,0.341,0.341,0.341,0.342,0.342,0.343,0.343,0.343,0.343,0.344,0.344,0.344,0.344,0.344,0.344,0.344,0.344,0.344,0.344,0.344,0.344,0.344,0.344,0.344,0.344,0.344,0.345,0.345,0.345,0.345,0.345,0.345,0.345,0.345,0.344,0.344,0.344,0.344,0.344,0.344,0.344,0.344,0.344,0.344,0.344,0.344,0.343,0.343,0.343,0.343,0.343,0.343,0.343,0.343,0.343,0.343,0.343,0.343,0.343,0.343,0.343,0.343,0.343,0.343,0.343,0.343,0.343,0.343,0.343,0.342,0.342,0.342,0.342,0.342,0.341,0.341,0.341,0.341,0.34,0.34,0.34,0.34,0.339,0.339,0.339,0.339,0.338,0.338,0.338,0.338,0.337,0.337,0.337,0.337,0.337,0.337,0.337,0.337,0.336,0.336,0.336,0.336,0.336,0.336,0.336,0.336,0.336,0.336,0.336,0.336,0.336,0.336,0.336,0.335,0.335,0.334,0.334,0.333,0.333,0.332,0.331,0.331,0.33,0.329,0.329,0.328,0.328,0.327,0.327,0.326,0.325,0.325,0.324,0.324,0.323,0.323,0.322,0.322,0.322,0.321,0.321,0.32,0.32,0.319,0.318,0.317,0.316,0.315,0.314,0.313,0.311,0.311,0.31,0.309,0.308,0.308,0.307,0.306,0.306,0.305,0.304,0.303,0.303,0.302,0.301,0.301,0.3,0.299,0.299,0.298,0.298,0.297,0.296,0.296,0.295,0.294,0.292,0.292,0.29,0.289,0.288,0.287,0.287,0.286,0.286,0.285,0.284,0.284,0.283,0.282,0.282,0.281,0.28,0.278,0.277,0.276,0.274,0.273,0.271,0.27,0.269,0.268,0.267,0.266,0.266,0,0,0,0,0,0,0.257,0.256,0.255,0.254,0.252,0.252,0.252,0.251,0.252,0.252,0.252,0.253,0.253,0.254,0.254,0.255,0.255,0.255,0.254,0.254,0.254,0,0,0,0,0,0,0.407,0.407,0.407,0.406,0.406,0.406,0.406,0.406,0.406,0.406,0.405,0.405,0.405,0.405,0.404,0.404,0.404,0.404,0.404,0.404,0.404,0.404,0.404,0.404,0.404,0.404,0.404,0.403,0.403,0.403,0.403,0.403,0.403,0.403,0.403,0.403,0.403,0.402,0.402,0.402,0.402,0.402,0.402,0.402,0.402,0.402,0.402,0.402,0.402,0.403,0.403,0.403,0.404,0.404,0.404,0.405,0.405,0.406,0.406,0.406,0.406,0.406,0.406,0.406,0.407,0.407,0.407,0.407,0.407,0.407,0.407,0.407,0.407,0.406,0.406,0.406,0.406,0.406,0.406,0.406,0.405,0.405,0.405,0.405,0.405,0.405,0.404,0.404,0.404,0.404,0.404,0.404,0.404,0.404,0.404,0.405,0.405,0,0,0,0,0,0,0,0,0,0,0,0,0,0,0,0,0,0,0,0.295,0.295
0,0,0,0,0,0,0,0,0,0,0,0,0,0,0,0,0,0,0,0,0,0,0,0,0.435,0.435,0.434,0.434,0.434,0.433,0.433,0.433,0.433,0.433,0.433,0.433,0.433,0.433,0.433,0.433,0.433,0.433,0.433,0.433,0.433,0.433,0.434,0.434,0.434,0.434,0.434,0.434,0.434,0.434,0.434,0.434,0.434,0.434,0.434,0.434,0.434,0.434,0.434,0.434,0.435,0.435,0.436,0.436,0.437,0.437,0.438,0.438,0.438,0.438,0.438,0.438,0.439,0.439,0.44,0.441,0,0,0,0,0,0,0,0,0,0,0,0,0,0,0,0,0,0,0,0,0,0,0,0,0,0,0,0,0,0,0,0,0,0,0,0,0,0.263,0.263,0.263,0.263,0.263,0.263,0.263,0.263,0.264,0.264,0.265,0.265,0.266,0,0,0,0,0,0,0,0.283,0,0.283,0.284,0.284,0.285,0.286,0.286,0.287,0.288,0.289,0.289,0.29,0.291,0.292,0.292,0.293,0.294,0.294,0.295,0.296,0.297,0.297,0.298,0.299,0.3,0.3,0.301,0.302,0.303,0.304,0.305,0.305,0.306,0.306,0.307,0.308,0.308,0.308,0.309,0.309,0.31,0.31,0.311,0.311,0.311,0.312,0.313,0.313,0.314,0.314,0.314,0.315,0.316,0.316,0.317,0.317,0.318,0.319,0.319,0.32,0.32,0.321,0.322,0.322,0.323,0.323,0.324,0.324,0.325,0.326,0.326,0.327,0.327,0.328,0.328,0.329,0.329,0.329,0.33,0.33,0.331,0.332,0.332,0.333,0.334,0.334,0.335,0.335,0.336,0.337,0.338,0.338,0.339,0.339,0.339,0.34,0.34,0.341,0.341,0.341,0.342,0.342,0.343,0.343,0.343,0.343,0.344,0.344,0.344,0.344,0.344,0.344,0.344,0.344,0.344,0.344,0.344,0.344,0.344,0.344,0.344,0.344,0.344,0.344,0.344,0.345,0.345,0.345,0.345,0.345,0.344,0.344,0.344,0.344,0.344,0.344,0.344,0.344,0.344,0.344,0.344,0.344,0.344,0.343,0.343,0.343,0.343,0.343,0.343,0.343,0.343,0.343,0.343,0.343,0.343,0.343,0.343,0.343,0.343,0.343,0.343,0.343,0.343,0.343,0.343,0.343,0.342,0.342,0.342,0.342,0.341,0.341,0.341,0.341,0.341,0.34,0.34,0.34,0.34,0.339,0.339,0.339,0.338,0.338,0.338,0.338,0.337,0.337,0.337,0.337,0.337,0.337,0.337,0.336,0.336,0.336,0.336,0.336,0.336,0.336,0.336,0.336,0.336,0.336,0.336,0.336,0.336,0.336,0.336,0.335,0.335,0.335,0.334,0.334,0.333,0.333,0.332,0.331,0.331,0.33,0.329,0.329,0.329,0.328,0.327,0.327,0.326,0.325,0.325,0.324,0.324,0.323,0.323,0.322,0.322,0.322,0.321,0.321,0.32,0.32,0.319,0.318,0.317,0.316,0.315,0.314,0.313,0.311,0.311,0.31,0.309,0.308,0.308,0.307,0.306,0.306,0.305,0.304,0.303,0.302,0.302,0.301,0.3,0.3,0.299,0.299,0.298,0.298,0.297,0.296,0.296,0.295,0.293,0.292,0.291,0.29,0.289,0.288,0.287,0.286,0.285,0.285,0.284,0.284,0.283,0.282,0.282,0.281,0.28,0.279,0.278,0.277,0.276,0.274,0.273,0.271,0.27,0.269,0.268,0.267,0.266,0.265,0.265,0,0,0,0,0,0,0,0,0,0,0,0,0,0,0.251,0,0,0,0,0,0.254,0.255,0,0,0,0,0,0,0,0,0,0,0.404,0.404,0.404,0.404,0.403,0.403,0.404,0.403,0.403,0.403,0.403,0.403,0.403,0.402,0.402,0.402,0.402,0.402,0.402,0.402,0.402,0.402,0.402,0.402,0.402,0.402,0.402,0.402,0.402,0.402,0.402,0.402,0.401,0.401,0.401,0.401,0.401,0.401,0.401,0.401,0.401,0.401,0.401,0.401,0.401,0.401,0.401,0.401,0.401,0.401,0.401,0.401,0.402,0.402,0.402,0.403,0.403,0.403,0.404,0.404,0.404,0.404,0.404,0.404,0.404,0.404,0.404,0.404,0.404,0.404,0.404,0.404,0.404,0.404,0.404,0.404,0.404,0.404,0.404,0.403,0.403,0.403,0.403,0.403,0.403,0.403,0.402,0.402,0.402,0.402,0.402,0.402,0.402,0.403,0.403,0,0,0,0,0,0,0,0,0,0,0,0,0,0,0,0,0,0,0,0,0,0.296,0.295
0,0,0,0,0,0,0,0,0,0,0,0,0,0,0,0,0,0,0,0,0,0,0,0,0,0.431,0.431,0.431,0.431,0.431,0.431,0.43,0.43,0.43,0.43,0.43,0.43,0.43,0.431,0.431,0.431,0.43,0.431,0.431,0.431,0.431,0.431,0.431,0.431,0.431,0.431,0.431,0.431,0.431,0.431,0.431,0.431,0.431,0.431,0.431,0.431,0.431,0.431,0.431,0.432,0.432,0.433,0.433,0.434,0.434,0.435,0.435,0.435,0.435,0.436,0.437,0.437,0.437,0.438,0.439,0,0,0,0,0,0,0,0,0,0,0,0,0,0,0,0,0,0,0,0,0,0,0,0,0,0,0,0,0,0,0,0,0,0,0,0,0,0,0.262,0,0.262,0.262,0.262,0.262,0.262,0.263,0.263,0.264,0.264,0,0,0,0,0,0,0,0,0,0.283,0.284,0.284,0.284,0.285,0.285,0.286,0.287,0.288,0.288,0.289,0.29,0.291,0.291,0.292,0.293,0.294,0.294,0.295,0.296,0.297,0.298,0.298,0.299,0.3,0.3,0.301,0.302,0.303,0.304,0.304,0.305,0.305,0.306,0.307,0.307,0.308,0.308,0.308,0.309,0.309,0.31,0.31,0.311,0.311,0.311,0.312,0.312,0.313,0.314,0.314,0.315,0.315,0.316,0.316,0.317,0.318,0.318,0.319,0.32,0.32,0.321,0.322,0.322,0.323,0.323,0.324,0.324,0.325,0.326,0.326,0.327,0.327,0.328,0.328,0.329,0.329,0.329,0.33,0.33,0.331,0.332,0.332,0.333,0.334,0.334,0.335,0.335,0.336,0.337,0.337,0.338,0.339,0.339,0.339,0.34,0.34,0.341,0.341,0.342,0.342,0.342,0.343,0.343,0.343,0.344,0.344,0.344,0.344,0.344,0.344,0.344,0.344,0.344,0.344,0.344,0.344,0.344,0.344,0.344,0.344,0.344,0.344,0.344,0.344,0.344,0.344,0.344,0.344,0.344,0.344,0.344,0.344,0.344,0.344,0.344,0.344,0.344,0.344,0.344,0.344,0.344,0.344,0.343,0.343,0.343,0.343,0.343,0.343,0.343,0.343,0.343,0.343,0.343,0.343,0.343,0.343,0.343,0.343,0.343,0.343,0.343,0.343,0.343,0.343,0.342,0.342,0.342,0.342,0.341,0.341,0.341,0.341,0.341,0.34,0.34,0.34,0.34,0.339,0.339,0.339,0.339,0.338,0.338,0.338,0.338,0.337,0.337,0.337,0.337,0.337,0.337,0.336,0.336,0.336,0.336,0.336,0.336,0.336,0.336,0.336,0.336,0.336,0.336,0.336,0.336,0.336,0.335,0.335,0.335,0.335,0.334,0.334,0.333,0.333,0.333,0.332,0.331,0.331,0.33,0.33,0.329,0.329,0.328,0.328,0.327,0.326,0.326,0.325,0.324,0.324,0.323,0.323,0.322,0.322,0.322,0.321,0.321,0.32,0.32,0.319,0.319,0.318,0.317,0.315,0.314,0.313,0.312,0.311,0.31,0.309,0.308,0.308,0.307,0.306,0.306,0.305,0.304,0.303,0.302,0.302,0.301,0.3,0.3,0.299,0.298,0.298,0.297,0.297,0.296,0.295,0.294,0.293,0.292,0.291,0.29,0.289,0.288,0.287,0.286,0.285,0.284,0.284,0.283,0.282,0.282,0.281,0.28,0.28,0.279,0.278,0.277,0.276,0.274,0,0,0,0.269,0.267,0.266,0.266,0.265,0.264,0.264,0,0,0.262,0.261,0,0,0,0,0.254,0,0,0,0.25,0.25,0,0,0,0,0,0,0,0,0,0,0,0,0,0,0,0.402,0.402,0.402,0.402,0.402,0.402,0.401,0.401,0.401,0.401,0.401,0.401,0.401,0.401,0.4,0.4,0.4,0.4,0.4,0.4,0.4,0.4,0.4,0.4,0.4,0.4,0.4,0.4,0.4,0.4,0.4,0.4,0.4,0.399,0.399,0.399,0.399,0.399,0.399,0.399,0.399,0.399,0.399,0.399,0.399,0.399,0.399,0.399,0.399,0.399,0.399,0.399,0.399,0.4,0.4,0.4,0.401,0.401,0.401,0.402,0.402,0.402,0.402,0.402,0.402,0.402,0.402,0.402,0.402,0.402,0.402,0.402,0.402,0.402,0.402,0.402,0.402,0.402,0.402,0.402,0.402,0.402,0.402,0.401,0.401,0.401,0.401,0.401,0.4,0.4,0.4,0.4,0.4,0.4,0.401,0.401,0.401,0.402,0,0,0,0,0,0,0,0,0,0,0,0,0,0,0,0,0,0,0,0.296,0.296,0.296
