0,0,0,0,0,0,0,0,0,0,0,0,0,0,0,0,0,0,0,0,0,0,0,0,0,0,0,0,0,0,0,0,0,0,0,0,0,0,0,0,0,0,0.42,0.42,0.42,0.42,0.42,0.42,0.42,0.42,0.42,0.42,0.42,0.42,0.42,0.42,0.42,0.42,0.42,0.42,0.42,0.421,0.421,0.421,0.421,0.421,0.421,0.421,0.421,0.421,0.421,0.421,0.421,0.421,0.421,0.419,0.418,0.416,0.414,0.412,0.409,0.407,0.405,0.403,0.401,0.4,0.398,0.396,0.395,0.394,0.393,0.393,0.392,0.392,0.392,0.392,0.392,0.392,0.392,0.392,0.393,0.393,0.393,0.394,0.394,0.394,0.394,0.395,0.395,0.395,0.395,0.395,0.396,0.396,0.396,0.396,0.396,0.397,0.397,0.397,0.397,0.397,0.397,0.397,0.398,0.398,0.398,0.398,0.398,0.398,0.398,0.399,0.399,0.399,0.399,0.399,0.399,0.4,0.4,0.4,0.4,0.4,0.401,0.401,0.401,0.401,0.401,0.402,0.402,0.402,0.402,0.402,0.403,0.403,0.403,0.403,0.404,0.404,0.404,0.404,0.404,0.404,0.404,0.404,0.405,0.405,0.405,0.405,0.405,0.406,0.406,0.406,0.406,0.407,0.407,0.407,0.407,0.408,0.408,0.409,0.409,0.409,0.41,0.41,0.41,0.41,0.41,0.41,0.41,0.41,0.41,0.411,0.411,0.41,0.411,0.411,0.411,0.411,0.411,0.411,0.411,0.411,0.412,0.412,0.412,0.412,0.413,0.413,0.414,0.414,0.414,0.415,0.415,0.415,0.415,0.415,0.415,0.415,0.415,0.415,0.416,0.416,0.416,0.416,0.416,0.417,0.417,0.417,0.417,0.417,0.418,0.418,0.418,0.419,0.419,0.419,0.42,0.42,0.42,0.42,0.421,0.421,0.421,0.421,0.421,0.421,0.421,0.421,0.421,0.421,0.421,0.421,0.422,0.422,0.422,0.423,0.423,0.423,0.423,0.424,0.424,0.425,0.425,0.425,0.425,0.425,0.425,0.426,0.426,0.426,0.427,0.427,0.427,0.427,0.427,0.428,0.428,0.428,0.428,0.428,0.428,0.428,0.428,0.428,0.429,0.429,0.429,0.43,0.43,0.43,0.43,0.431,0.431,0.431,0.431,0.431,0.431,0.431,0.431,0.432,0.432,0.432,0.432,0.433,0.433,0.433,0.433,0.433,0.433,0.434,0.434,0.434,0.435,0.435,0.435,0.436,0.436,0.437,0.437,0.437,0.437,0.438,0.438,0.438,0.438,0.438,0.439,0.439,0.439,0.439,0.439,0.439,0.439,0.44,0.44,0.44,0.44,0.44,0.441,0.441,0.441,0.442,0.442,0.442,0.443,0.443,0,0.443,0.444,0.444,0.444,0.444,0.444,0.445,0.445,0.445,0.445,0.445,0.445,0.445,0.446,0.446,0.446,0.446,0.446,0.447,0.447,0.447,0.448,0.448,0.448,0.448,0.448,0.449,0.449,0.449,0.45,0.45,0.45,0.451,0.451,0.451,0.452,0.454,0.457,0.462,0.467,0,0.478,0.483,0.487,0.49,0.49,0.49,0.49,0.489,0.487,0.485,0.483,0.481,0.479,0.476,0.474,0.472,0.471,0.47,0.469,0.468,0.466,0.465,0.465,0.464,0.463,0.462,0.462,0.461,0.461,0.46,0.46,0.459,0.458,0.458,0.458,0.458,0.457,0.457,0.457,0.458,0.458,0.458,0.458,0.458,0.459,0.459,0.46,0.46,0.461,0.461,0.461,0.462,0.462,0.462,0.462,0.463,0.463,0.463,0.463,0.463,0.463,0.464,0.464,0.464,0.464,0.465,0.465,0.465,0.465,0.465,0.466,0.466,0.466,0.466,0.466,0.467,0.467,0.468,0.468,0.468,0.469,0.469,0.469,0.47,0.47,0.471,0.471,0.471,0.471,0.472,0.472,0.473,0.473,0.473,0.474,0.474,0.475,0.475,0.475,0.476,0.476,0.476,0.476,0.477,0.477,0.477,0.477,0.478,0.478,0.478,0.478,0.479,0.479,0.479,0.479,0.48,0.48,0.48,0.48,0.48,0.481,0.481,0.481,0.481,0.482,0.482,0.482,0.483,0.483,0.483,0.483,0.484,0.484,0.484,0.484,0.484,0.484,0.484,0.485,0.485,0.485,0.486,0.486,0.486,0.487,0.487,0.488,0.488,0.489,0.489,0.49,0.49,0.49,0.491,0.491,0.491,0.492,0.492,0.493
0,0,0,0,0,0,0,0,0,0,0,0,0,0,0,0,0,0,0,0,0,0,0,0,0,0,0,0,0,0,0,0,0,0,0,0,0,0,0,0,0,0,0.419,0.419,0.419,0.419,0.419,0.419,0.419,0.419,0.419,0.419,0.419,0.419,0.419,0.42,0.419,0.419,0.419,0.42,0.42,0.42,0.42,0.42,0.42,0.42,0.42,0.42,0.42,0.42,0.42,0.421,0.421,0.42,0.42,0.419,0.417,0.416,0.414,0.412,0.41,0.407,0.406,0.403,0.402,0.4,0.398,0.397,0.395,0.394,0.393,0.393,0.392,0.391,0.391,0.391,0.391,0.391,0.391,0.392,0.392,0.392,0.392,0.393,0.393,0.393,0.394,0.394,0.394,0.394,0.395,0.395,0.395,0.395,0.395,0.396,0.396,0.396,0.396,0.396,0.396,0.396,0.397,0.397,0.397,0.397,0.397,0.397,0.397,0.398,0.398,0.398,0.398,0.398,0.398,0.399,0.399,0.399,0.399,0.399,0.399,0.4,0.4,0.4,0.4,0.4,0.401,0.401,0.401,0.401,0.402,0.402,0.402,0.402,0.403,0.403,0.403,0.403,0.403,0.403,0.403,0.403,0.403,0.404,0.404,0.404,0.404,0.404,0.404,0.405,0.405,0.405,0.406,0.406,0.406,0.407,0.407,0.407,0.408,0.408,0.408,0.409,0.409,0.409,0.409,0.409,0.409,0.41,0.41,0.41,0.41,0.41,0.41,0.41,0.41,0.41,0.41,0.41,0.41,0.41,0.41,0.41,0.41,0.411,0.411,0.412,0.412,0.413,0.413,0.413,0.413,0.414,0.415,0.415,0.415,0.415,0.415,0.415,0.415,0.415,0.415,0.415,0.415,0.415,0.415,0.416,0.416,0.416,0.417,0.417,0.417,0.418,0.418,0.418,0.418,0.419,0.419,0.419,0.419,0.419,0.42,0.42,0.42,0.42,0.42,0.42,0.42,0.421,0.421,0.421,0.421,0.421,0.421,0.421,0.422,0.422,0.422,0.422,0.423,0.423,0.423,0.424,0.424,0.424,0.424,0.425,0.425,0.425,0.425,0.425,0.426,0.426,0.427,0.426,0.427,0.427,0.427,0.428,0.427,0.428,0.428,0.428,0.428,0.428,0.428,0.428,0.428,0.429,0.429,0.429,0.43,0.43,0.43,0.43,0.431,0.43,0.43,0.431,0.431,0.431,0.431,0.431,0.431,0.432,0.432,0.432,0.432,0.432,0.433,0.433,0.433,0.434,0.434,0.434,0.434,0.435,0.435,0.436,0.436,0.436,0.437,0.437,0.437,0.437,0.438,0.438,0.438,0.438,0.438,0.438,0.438,0.438,0.439,0.439,0.439,0.439,0.439,0.439,0.44,0.44,0.44,0.441,0.441,0.441,0.442,0,0,0.442,0.442,0.443,0.443,0.443,0.443,0.444,0.444,0.444,0.444,0.444,0.444,0.444,0.445,0.445,0.445,0.445,0.446,0.446,0.446,0.446,0.447,0.447,0.447,0.447,0.448,0.448,0.448,0.448,0.449,0.45,0.45,0.45,0.451,0.451,0.452,0.455,0.458,0.463,0,0,0.479,0.484,0.488,0.489,0.49,0.49,0.49,0.488,0.487,0.485,0.483,0.481,0.478,0.476,0.473,0.471,0.47,0.469,0.468,0.466,0.465,0.465,0.464,0.463,0.462,0.461,0.461,0.46,0.46,0.459,0.458,0.458,0.458,0.458,0.457,0.457,0.457,0.457,0.457,0.457,0.457,0.457,0.458,0.458,0.458,0.458,0.459,0.459,0.46,0.46,0.46,0.461,0.461,0.461,0.462,0.462,0.462,0.462,0.462,0.462,0.463,0.463,0.463,0.464,0.464,0.464,0.464,0.465,0.465,0.465,0.465,0.465,0.465,0.466,0.466,0.466,0.466,0.467,0.467,0.468,0.468,0.468,0.469,0.469,0.469,0.47,0.47,0.47,0.47,0.471,0.471,0.471,0.472,0.472,0.473,0.473,0.474,0.474,0.474,0.475,0.475,0.475,0.475,0.476,0.476,0.476,0.476,0.477,0.477,0.477,0.478,0.478,0.478,0.478,0.479,0.479,0.479,0.479,0.48,0.48,0.48,0.48,0.48,0.481,0.481,0.481,0.481,0.482,0.482,0.482,0.483,0.483,0.483,0.483,0.483,0.483,0.484,0.484,0.484,0.484,0.484,0.485,0.485,0.485,0.486,0.486,0.487,0.487,0.488,0.488,0.488,0.489,0.49,0.49,0.49,0.491,0.491,0.491,0.492
0,0,0,0,0,0,0,0,0,0,0,0,0,0,0,0,0,0,0,0,0,0,0,0,0,0,0,0,0,0,0,0,0,0,0,0,0,0,0,0,0,0,0,0.418,0.419,0.418,0.419,0.418,0.419,0.419,0.419,0.419,0.419,0.419,0.419,0.419,0.419,0.419,0.419,0.419,0.419,0.419,0.419,0.419,0.419,0.419,0.419,0.419,0.419,0.419,0.42,0.42,0.42,0.419,0.419,0.418,0.417,0.415,0.414,0,0.41,0.409,0.406,0.404,0.403,0.401,0.399,0.397,0.395,0.394,0.393,0.392,0.392,0.391,0.391,0.391,0.391,0.391,0.391,0.391,0.391,0.392,0.392,0.392,0.392,0.393,0.393,0.393,0.394,0.394,0.394,0.394,0.394,0.395,0.395,0.395,0.395,0.395,0.396,0.396,0.396,0.396,0.396,0.396,0.396,0.396,0.396,0.396,0.397,0.397,0.397,0.397,0.398,0.398,0.398,0.398,0.398,0.398,0.399,0.399,0.399,0.399,0.399,0.399,0.399,0.4,0.4,0.4,0.401,0.401,0.401,0.401,0.402,0.402,0.402,0.402,0.402,0.402,0.403,0.403,0.403,0.403,0.403,0.403,0.403,0.403,0.403,0.403,0.404,0.404,0.404,0.404,0.405,0.405,0.406,0.406,0.406,0.407,0.407,0.407,0.408,0.408,0.409,0.409,0.409,0.409,0.409,0.409,0.409,0.409,0.409,0.409,0.409,0.409,0.409,0.409,0.409,0.409,0.409,0.409,0.409,0.41,0.41,0.41,0.41,0.411,0.411,0.412,0.412,0.413,0.413,0.413,0.414,0.414,0.414,0.414,0.414,0.414,0.415,0.415,0.415,0.415,0.415,0.415,0.415,0.415,0.415,0.416,0.416,0.416,0.417,0.417,0.417,0.417,0.418,0.418,0.418,0.419,0.419,0.419,0.419,0.419,0.419,0.419,0.419,0.419,0.42,0.42,0.42,0.42,0.42,0.42,0.42,0.421,0.421,0.421,0.421,0.421,0.422,0.422,0.423,0.423,0.423,0.423,0.423,0.424,0.424,0.424,0.424,0.425,0.425,0.425,0.426,0.426,0.426,0.426,0.426,0.427,0.427,0.427,0.427,0.427,0.427,0.427,0.427,0.428,0.428,0.428,0.428,0.429,0.429,0.429,0.43,0.43,0.43,0.43,0.43,0.43,0.43,0.43,0.43,0.431,0.431,0.431,0.431,0.431,0.431,0.432,0.432,0.432,0.432,0.433,0.433,0.434,0.434,0.434,0.435,0.435,0.435,0.435,0.436,0.436,0.436,0.436,0.437,0.437,0.437,0.437,0.437,0.437,0.437,0.437,0.437,0.438,0.438,0.438,0.438,0.439,0.439,0.439,0.439,0.44,0.44,0.44,0.44,0.441,0.441,0.441,0.441,0.442,0.442,0.442,0.442,0.443,0.443,0.443,0.443,0.443,0.443,0.444,0.444,0.444,0.444,0.444,0.445,0.445,0.446,0.446,0.446,0.446,0.446,0.447,0.447,0.447,0.447,0.447,0.448,0.448,0.449,0.45,0.45,0.451,0.452,0.455,0.459,0,0,0.475,0.48,0.485,0.488,0.489,0.49,0.49,0.49,0.488,0.487,0.485,0.483,0.48,0.478,0.475,0.473,0.471,0.469,0.468,0.466,0.465,0.465,0.464,0.463,0.462,0.461,0.461,0.46,0.459,0.459,0.458,0.458,0.457,0.457,0.457,0.457,0.457,0.457,0.456,0.456,0.457,0.457,0.457,0.457,0.457,0.457,0.457,0.458,0.458,0.459,0.459,0.46,0.46,0.46,0.46,0.461,0.461,0.461,0.461,0.461,0.462,0.462,0.462,0.463,0.463,0.463,0.463,0.464,0.464,0.464,0.464,0.465,0.464,0.465,0.465,0.465,0.465,0.466,0.466,0.466,0.467,0.467,0.468,0.468,0.468,0.468,0.469,0.469,0.469,0.47,0.47,0.47,0.47,0.471,0.471,0.472,0.473,0.473,0.473,0.474,0.474,0.474,0.475,0.475,0.475,0.475,0.475,0.475,0.476,0.476,0.476,0.477,0.477,0.477,0.477,0.478,0.478,0.478,0.478,0.479,0.479,0.479,0.479,0.48,0.48,0.48,0.48,0.481,0.481,0.481,0.481,0.482,0.482,0.482,0.482,0.482,0.483,0.483,0.483,0.483,0.483,0.484,0.484,0.484,0.484,0.485,0.485,0.486,0.486,0.486,0.487,0.488,0.488,0.488,0.489,0.49,0.49,0.49,0.491,0.491
0,0,0,0,0,0,0,0,0,0,0,0,0,0,0,0,0,0,0,0,0,0,0,0,0,0,0,0,0,0,0,0,0,0,0,0,0,0,0,0,0,0,0,0,0,0.417,0.418,0.418,0.418,0.418,0.418,0.418,0.418,0.418,0.418,0.418,0.418,0.418,0.418,0.419,0.419,0.419,0.419,0.418,0.419,0.419,0.419,0.419,0.419,0.419,0.419,0.419,0.419,0.419,0.419,0.418,0.417,0.415,0.414,0.413,0.411,0.409,0.407,0.406,0.404,0.402,0.4,0.397,0.395,0.394,0.393,0.392,0.391,0.391,0.39,0.39,0.39,0.39,0.39,0.39,0.39,0.391,0.391,0.391,0.391,0.392,0.392,0.392,0.393,0.393,0.393,0.393,0.393,0.394,0.394,0.394,0.394,0.395,0.395,0.395,0.395,0.395,0.395,0.395,0.395,0.395,0.396,0.396,0.396,0.396,0.396,0.397,0.397,0.397,0.397,0.397,0.398,0.398,0.398,0.398,0.398,0.398,0.399,0.399,0.399,0.399,0.399,0.4,0.4,0.4,0.401,0.401,0.401,0.401,0.402,0.401,0.402,0.402,0.402,0.402,0.402,0.402,0.402,0.402,0.402,0.402,0.402,0.403,0.403,0.403,0.403,0.404,0.404,0.404,0.405,0.405,0.406,0.406,0.407,0.407,0.407,0.407,0.408,0.408,0.408,0.408,0.408,0.408,0.408,0.408,0.408,0.408,0.408,0.408,0.408,0.409,0.409,0.409,0.409,0.409,0.409,0.409,0.409,0.409,0.41,0.41,0.411,0.411,0.412,0.412,0.412,0.413,0.413,0.413,0.413,0.413,0.413,0.413,0.414,0.413,0.414,0.414,0.414,0.414,0.414,0.414,0.415,0.415,0.415,0.415,0.416,0.416,0.416,0.417,0.417,0.417,0.418,0.418,0.418,0.418,0.418,0.418,0.419,0.419,0.419,0.419,0.419,0.419,0.419,0.419,0.419,0.419,0.42,0.42,0.42,0.42,0.42,0.421,0.421,0.421,0.422,0.422,0.422,0.422,0.422,0.423,0.423,0.423,0.423,0.424,0.424,0.425,0.425,0.425,0.425,0.425,0.425,0.426,0.426,0.426,0.426,0.426,0.426,0.426,0.427,0.427,0.427,0.428,0.428,0.428,0.428,0.428,0.429,0.429,0.429,0.429,0.429,0.429,0.429,0.429,0.429,0.43,0.43,0.43,0.43,0.431,0.431,0.431,0.431,0.432,0.432,0.432,0.433,0.433,0.433,0.434,0.434,0.434,0.435,0.435,0.435,0.435,0.435,0.435,0.436,0.436,0.436,0.436,0.436,0.436,0.436,0.436,0.437,0.437,0.437,0.437,0.437,0.438,0.438,0.439,0.439,0.439,0.439,0.439,0.44,0.44,0.44,0.44,0.441,0.441,0.441,0.441,0.441,0.442,0.442,0.442,0.442,0.442,0.443,0.443,0.443,0.443,0.444,0.444,0.444,0.444,0.445,0.445,0.445,0.446,0.446,0.446,0.446,0.446,0.446,0.447,0.447,0.448,0.448,0.449,0.45,0.45,0.451,0.455,0.46,0,0,0.475,0.48,0.485,0.487,0.488,0.489,0.49,0.489,0.488,0.486,0.485,0.483,0.48,0.478,0.475,0.472,0.47,0.468,0.467,0.465,0.464,0.464,0.463,0.462,0.461,0.46,0.46,0.459,0.458,0.458,0.457,0.457,0.457,0.456,0.456,0.456,0.456,0.456,0.456,0.456,0.456,0.456,0.456,0.456,0.456,0.456,0.457,0.457,0.457,0.458,0.458,0.458,0.459,0.459,0.459,0.46,0.46,0.46,0.46,0.46,0.461,0.461,0.461,0.462,0.462,0.462,0.463,0.463,0.463,0.463,0.464,0.464,0.464,0.464,0.464,0.465,0.465,0.465,0.465,0.466,0.466,0.466,0.467,0.467,0.467,0.468,0.468,0.468,0.468,0.469,0.469,0.469,0.47,0.47,0.47,0.471,0.471,0.472,0.473,0.473,0.473,0.473,0.474,0.474,0.474,0.474,0.474,0.475,0.475,0.475,0.475,0.476,0.477,0.477,0.477,0.477,0.478,0.478,0.478,0.478,0.478,0.478,0.478,0.479,0.479,0.479,0.48,0.48,0.48,0.48,0.481,0.481,0.481,0.481,0.481,0.481,0.482,0.482,0.482,0.482,0.483,0.483,0.483,0.483,0.483,0.484,0.484,0.484,0.485,0.486,0.486,0.486,0.487,0.488,0.488,0.488,0.488,0.489,0.49,0.49
0,0,0,0,0,0,0,0,0,0,0,0,0,0,0,0,0,0,0,0,0,0,0,0,0,0,0,0,0,0,0,0,0,0,0,0,0,0,0,0,0,0,0,0,0,0.417,0.417,0.417,0.417,0.417,0.417,0.417,0.417,0.417,0.417,0.417,0.417,0.417,0.417,0.417,0.418,0.418,0.418,0.418,0.418,0.418,0.418,0.418,0.419,0.419,0.419,0.419,0.419,0.418,0.418,0.417,0.416,0.415,0.414,0.413,0.412,0.41,0.408,0.407,0.405,0.403,0.401,0.398,0.395,0.394,0.392,0.392,0.391,0.39,0.39,0.389,0.389,0.389,0.389,0.389,0.39,0.39,0.39,0.39,0.391,0.391,0.391,0.391,0.392,0.392,0.392,0.393,0.393,0.393,0.393,0.393,0.394,0.394,0.394,0.394,0.394,0.394,0.394,0.394,0.395,0.395,0.395,0.395,0.395,0.396,0.396,0.396,0.396,0.397,0.397,0.397,0.397,0.397,0.397,0.397,0.398,0.398,0.398,0.398,0.398,0.399,0.399,0.399,0.399,0.399,0.4,0.4,0.401,0.401,0.401,0.401,0.401,0.401,0.401,0.401,0.402,0.402,0.402,0.402,0.402,0.402,0.402,0.402,0.402,0.402,0.403,0.403,0.403,0.404,0.404,0.404,0.405,0.406,0.406,0.406,0.407,0.407,0.407,0.407,0.407,0.407,0.407,0.407,0.407,0.407,0.407,0.407,0.407,0.408,0.408,0.408,0.408,0.408,0.408,0.408,0.408,0.408,0.408,0.409,0.409,0.41,0.41,0.41,0.41,0.411,0.412,0.412,0.412,0.412,0.413,0.413,0.413,0.413,0.413,0.413,0.413,0.413,0.413,0.413,0.413,0.414,0.414,0.414,0.415,0.415,0.415,0.415,0.416,0.416,0.416,0.417,0.417,0.417,0.417,0.417,0.417,0.418,0.418,0.418,0.418,0.418,0.418,0.418,0.418,0.418,0.419,0.419,0.419,0.419,0.419,0.419,0.42,0.42,0.42,0.421,0.421,0.421,0.421,0.421,0.422,0.422,0.422,0.422,0.423,0.423,0.424,0.424,0.424,0.424,0.425,0.425,0.425,0.425,0.425,0.425,0.425,0.425,0.425,0.425,0.426,0.426,0.427,0.427,0.427,0.427,0.428,0.428,0.428,0.428,0.428,0.428,0.428,0.428,0.428,0.428,0.429,0.429,0.429,0.429,0.43,0.43,0.43,0.43,0.431,0.431,0.431,0.432,0.432,0.432,0.432,0.433,0.433,0.434,0.434,0.434,0.434,0.434,0.434,0.435,0.435,0.435,0.435,0.435,0.435,0.435,0.435,0.435,0.435,0.436,0.436,0.436,0.436,0.437,0.437,0.438,0.438,0.438,0.438,0.439,0.439,0.439,0.439,0.44,0.44,0.44,0.44,0.44,0.441,0.441,0.441,0.441,0.441,0.442,0.442,0.442,0.443,0.443,0.443,0.443,0.443,0.443,0.444,0.444,0.444,0.445,0.445,0.445,0.445,0.446,0.446,0.446,0.446,0.447,0.447,0.448,0.448,0.449,0.451,0.455,0.46,0.465,0.47,0.475,0.48,0.485,0.487,0.488,0.488,0.488,0.488,0.488,0.486,0.484,0.482,0.48,0.478,0.475,0.472,0.47,0.468,0.466,0.465,0.464,0.463,0.462,0.461,0.46,0.46,0.459,0.458,0.458,0.457,0.457,0.456,0.456,0.456,0.456,0.456,0.456,0.456,0.456,0.456,0.456,0.456,0.456,0.456,0.456,0.456,0.456,0.456,0.457,0.457,0.457,0.457,0.458,0.458,0.458,0.459,0.459,0.459,0.459,0.459,0.46,0.46,0.46,0.461,0.461,0.462,0.462,0.462,0.462,0.463,0.463,0.463,0.463,0.464,0.464,0.464,0.464,0.465,0.465,0.465,0.465,0.466,0.466,0.466,0.466,0.467,0.467,0.467,0.467,0.468,0.468,0.468,0.469,0.469,0.47,0.47,0.471,0.471,0.471,0.472,0.472,0.473,0.473,0.473,0.473,0.473,0.473,0.474,0.474,0.474,0.475,0.475,0.475,0.476,0.476,0.477,0.477,0.477,0.477,0.478,0.478,0.478,0.478,0.478,0.478,0.479,0.479,0.479,0.48,0.48,0.48,0.48,0.48,0.48,0.48,0.481,0.481,0.481,0.481,0.481,0.481,0.482,0.482,0.482,0.483,0.483,0.483,0.484,0.484,0.484,0.485,0.485,0.486,0.486,0.487,0.487,0.488,0.488,0.489,0.49
0,0,0,0,0,0,0,0,0,0,0,0,0,0,0,0,0,0,0,0,0,0,0,0,0,0,0,0,0,0,0,0,0,0,0,0,0,0,0,0,0,0,0,0,0,0.416,0.416,0.416,0.416,0.416,0.416,0.416,0.416,0.416,0.416,0.416,0.416,0.416,0.417,0.417,0.417,0.417,0.417,0.417,0.417,0.417,0.417,0.417,0.418,0.418,0.418,0.418,0.417,0.417,0.417,0.416,0.416,0.415,0.414,0.413,0.412,0.411,0.41,0.408,0.406,0.404,0,0.399,0.396,0.394,0.393,0.392,0.391,0.39,0.389,0.389,0.388,0.388,0.388,0.389,0.389,0.389,0.389,0.39,0.39,0.39,0.39,0.391,0.391,0.391,0.391,0.392,0.392,0.392,0.392,0.393,0.393,0.393,0.393,0.393,0.393,0.393,0.393,0.394,0.394,0.394,0.394,0.394,0.395,0.395,0.395,0.395,0.396,0.396,0.396,0.396,0.396,0.396,0.397,0.397,0.397,0.397,0.398,0.398,0.398,0.398,0.399,0.399,0.399,0.399,0.399,0.4,0.4,0.4,0.4,0.4,0.4,0.401,0.401,0.401,0.401,0.401,0.401,0.401,0.401,0.402,0.401,0.402,0.402,0.402,0.402,0.403,0.403,0.403,0.403,0.404,0.404,0.405,0.405,0.406,0.406,0.406,0.406,0.406,0.406,0.406,0.406,0.406,0.406,0.406,0.407,0.407,0.407,0.407,0.407,0.407,0.407,0.407,0.407,0.408,0.408,0.408,0.408,0.408,0.409,0.409,0.409,0.41,0.41,0.41,0.411,0.411,0.412,0.412,0.412,0.412,0.412,0.412,0.412,0.412,0.412,0.412,0.413,0.413,0.413,0.413,0.413,0.414,0.414,0.414,0.415,0.415,0.415,0.415,0.416,0.416,0.416,0.416,0.416,0.417,0.417,0.417,0.417,0.417,0.417,0.417,0.418,0.418,0.418,0.418,0.418,0.418,0.418,0.419,0.419,0.419,0.419,0.419,0.419,0.42,0.42,0.42,0.42,0.421,0.421,0.421,0.421,0.422,0.422,0.423,0.423,0.423,0.423,0.423,0.424,0.424,0.424,0.424,0.424,0.424,0.424,0.425,0.425,0.425,0.425,0.425,0.426,0.426,0.426,0.427,0.427,0.427,0.427,0.428,0.427,0.427,0.427,0.427,0.428,0.428,0.428,0.428,0.428,0.429,0.429,0.429,0.429,0.43,0.43,0.431,0.431,0.431,0.431,0.431,0.432,0.432,0.433,0.433,0.433,0.434,0.433,0.434,0.434,0.434,0.434,0.434,0.434,0.434,0.434,0.434,0.434,0.435,0.435,0.435,0.435,0.436,0.436,0.436,0.436,0.437,0.437,0.437,0.437,0.438,0.438,0.439,0.439,0.439,0.439,0.44,0.44,0.44,0.44,0.44,0.441,0.441,0.441,0.441,0.441,0.442,0.442,0.442,0.442,0.442,0.442,0.443,0.443,0.443,0.443,0.444,0.444,0.444,0.445,0.445,0.445,0.445,0.446,0.446,0.447,0.447,0.448,0.448,0.451,0.455,0.46,0,0.47,0.475,0.48,0.484,0.486,0.487,0.487,0.488,0.488,0.487,0.485,0.484,0.482,0.48,0.478,0.475,0.472,0.469,0.467,0.465,0.464,0.463,0.462,0.461,0.46,0.459,0.459,0.458,0.457,0.457,0.457,0.456,0.456,0.456,0.455,0.455,0.455,0.455,0.455,0.455,0.455,0.455,0.455,0.455,0.455,0.455,0.455,0.455,0.456,0.456,0.456,0.456,0.456,0.457,0.457,0.457,0.458,0.458,0.458,0.458,0.458,0.459,0.459,0.46,0.46,0.46,0.46,0.461,0.461,0.461,0.462,0.462,0.462,0.463,0.463,0.463,0.463,0.464,0.464,0.464,0.465,0.465,0.465,0.465,0.465,0.466,0.466,0.466,0.466,0.466,0.467,0.467,0.467,0.468,0.468,0.469,0.469,0.47,0.47,0.47,0.471,0.471,0.471,0.472,0.472,0.472,0.472,0.473,0.473,0.473,0.473,0.474,0.474,0.475,0.475,0.475,0.476,0.476,0.476,0.477,0.477,0.477,0.477,0.477,0.478,0.478,0.478,0.478,0.478,0.479,0.479,0.479,0.479,0.479,0.48,0.48,0.48,0.48,0.48,0.48,0.48,0.481,0.481,0.481,0.481,0.482,0.482,0.482,0.483,0.483,0.483,0.484,0.484,0.485,0.485,0.486,0.486,0.487,0.488,0.488,0.488
0,0,0,0,0,0,0,0,0,0,0,0,0,0,0,0,0,0,0,0,0,0,0,0,0,0,0,0,0,0,0,0,0,0,0,0,0,0,0,0,0,0,0,0,0.415,0.415,0.415,0.415,0.415,0.415,0.415,0.415,0.415,0.415,0.415,0.415,0.415,0.416,0.416,0.416,0.416,0.416,0.416,0.416,0.416,0.416,0.416,0.417,0.417,0.417,0.417,0.417,0.417,0.416,0.416,0.416,0.415,0.415,0.414,0.413,0.412,0.411,0.41,0.409,0,0,0,0,0.396,0.394,0.393,0.392,0.391,0.39,0.389,0.388,0.388,0.388,0.388,0.388,0.388,0.389,0.389,0.389,0.389,0.389,0.39,0.39,0.39,0.39,0.39,0.391,0.391,0.391,0.391,0.392,0.392,0.392,0.392,0.393,0.393,0.393,0.393,0.393,0.393,0.393,0.394,0.393,0.394,0.394,0.394,0.395,0.395,0.395,0.395,0.395,0.396,0.396,0.396,0.396,0.397,0.397,0.397,0.397,0.398,0.398,0.398,0.398,0.399,0.399,0.399,0.399,0.399,0.4,0.4,0.399,0.4,0.4,0.4,0.4,0.4,0.4,0.401,0.401,0.401,0.401,0.401,0.401,0.401,0.401,0.402,0.402,0.402,0.402,0.403,0.403,0.403,0.404,0.404,0.404,0.405,0.405,0.405,0.405,0.405,0.405,0.405,0.405,0.406,0.406,0.406,0.406,0.406,0.406,0.407,0.407,0.407,0.407,0.407,0.407,0.407,0.407,0.407,0.407,0.408,0.408,0.408,0.409,0.409,0.409,0.41,0.41,0.411,0.411,0.411,0.411,0.411,0.411,0.411,0.412,0.412,0.412,0.412,0.412,0.412,0.413,0.413,0.413,0.413,0.414,0.414,0.414,0.414,0.415,0.415,0.415,0.415,0.415,0.416,0.415,0.416,0.416,0.416,0.417,0.417,0.417,0.417,0.417,0.417,0.417,0.417,0.418,0.418,0.418,0.418,0.418,0.418,0.419,0.419,0.419,0.419,0.419,0.42,0.42,0.42,0.421,0.421,0.421,0.421,0.421,0.422,0.422,0.422,0.423,0.423,0.423,0.423,0.423,0.423,0.423,0.424,0.424,0.424,0.424,0.424,0.425,0.425,0.425,0.425,0.426,0.426,0.426,0.426,0.427,0.426,0.426,0.426,0.427,0.427,0.427,0.427,0.427,0.427,0.428,0.428,0.428,0.429,0.429,0.429,0.43,0.43,0.431,0.431,0.431,0.431,0.432,0.432,0.432,0.432,0.433,0.433,0.433,0.433,0.433,0.433,0.433,0.434,0.433,0.434,0.434,0.434,0.434,0.434,0.434,0.434,0.435,0.435,0.435,0.435,0.436,0.436,0.436,0.437,0.437,0.437,0.438,0.438,0.438,0.439,0.439,0.439,0.439,0.439,0.439,0.44,0.44,0.44,0.44,0.44,0.441,0.441,0.441,0.441,0.441,0.441,0.442,0.442,0.442,0.443,0.443,0.443,0.444,0.444,0.444,0.444,0.444,0.445,0.445,0.446,0.446,0.447,0.448,0.451,0.456,0.461,0,0.471,0.475,0.48,0.484,0.485,0.486,0.486,0.486,0.487,0.486,0.485,0.483,0.481,0.48,0.478,0.475,0.472,0.469,0.467,0.465,0.463,0.462,0.461,0.46,0.459,0.458,0.458,0.457,0.457,0.456,0.456,0.456,0.455,0.455,0.455,0.455,0.455,0.455,0.455,0.455,0.455,0.455,0.455,0.455,0.454,0.455,0.455,0.455,0.455,0.455,0.455,0.455,0.456,0.456,0.456,0.456,0.457,0.457,0.457,0.457,0.457,0.458,0.458,0.458,0.459,0.459,0.46,0.46,0.46,0.461,0.461,0.461,0.461,0.462,0.462,0.462,0.463,0.463,0.463,0.463,0.464,0.464,0.464,0.465,0.465,0.465,0.465,0.465,0.466,0.466,0.466,0.466,0.466,0.467,0.467,0.468,0.468,0.469,0.469,0.469,0.47,0.47,0.471,0.471,0.471,0.471,0.471,0.471,0.472,0.472,0.472,0.473,0.473,0.474,0.474,0.475,0.475,0.475,0.475,0.475,0.476,0.476,0.477,0.477,0.477,0.477,0.477,0.478,0.478,0.478,0.478,0.478,0.478,0.478,0.479,0.479,0.479,0.479,0.479,0.48,0.48,0.48,0.48,0.48,0.481,0.481,0.481,0.481,0.482,0.482,0.483,0.483,0.483,0.484,0.484,0.485,0.485,0.486,0.487,0.487,0.488
0,0,0,0,0,0,0,0,0,0,0,0,0,0,0,0,0,0,0,0,0,0,0,0,0,0,0,0,0,0,0,0,0,0,0,0,0,0,0,0,0,0,0,0,0,0,0.414,0.414,0.414,0.413,0.413,0.414,0.414,0.414,0.414,0.414,0.415,0.415,0.415,0.415,0.415,0.415,0.415,0.415,0.415,0.415,0.415,0.416,0.416,0.416,0.416,0.416,0.416,0.415,0.415,0.415,0.415,0.414,0.414,0.413,0.413,0.412,0.411,0.409,0,0,0,0,0.396,0.394,0.393,0.392,0.39,0.389,0.388,0.388,0.387,0.387,0.387,0.387,0.388,0.388,0.388,0.388,0.388,0.389,0.389,0.389,0.389,0.389,0.39,0.39,0.39,0.39,0.391,0.391,0.391,0.391,0.392,0.392,0.392,0.392,0.392,0.392,0.392,0.392,0.393,0.393,0.393,0.393,0.394,0.394,0.394,0.395,0.395,0.395,0.395,0.395,0.395,0.396,0.396,0.396,0.397,0.397,0.397,0.398,0.398,0.398,0.398,0.398,0.399,0.399,0.399,0.399,0.399,0.399,0.399,0.399,0.399,0.399,0.4,0.4,0.4,0.4,0.4,0.401,0.4,0.401,0.401,0.401,0.401,0.402,0.402,0.402,0.402,0.402,0.403,0.403,0.403,0.403,0.404,0.404,0.404,0.404,0.404,0.404,0.404,0.404,0.405,0.405,0.405,0.405,0.406,0.406,0.406,0.406,0.406,0.406,0.406,0.406,0.406,0.406,0.407,0.407,0.407,0.407,0.407,0.408,0.408,0.408,0.409,0.409,0.41,0.41,0.41,0.41,0.41,0.41,0.41,0.411,0.41,0.411,0.411,0.411,0.412,0.412,0.412,0.412,0.413,0.413,0.413,0.413,0.413,0.414,0.414,0.414,0.414,0.415,0.415,0.415,0.415,0.415,0.416,0.416,0.416,0.416,0.416,0.417,0.417,0.417,0.417,0.417,0.417,0.418,0.417,0.418,0.418,0.418,0.418,0.419,0.419,0.419,0.419,0.419,0.42,0.42,0.42,0.42,0.42,0.421,0.421,0.421,0.421,0.422,0.422,0.422,0.422,0.422,0.423,0.423,0.423,0.423,0.423,0.423,0.424,0.424,0.424,0.424,0.425,0.425,0.425,0.425,0.425,0.425,0.425,0.425,0.426,0.426,0.426,0.426,0.426,0.426,0.427,0.427,0.428,0.428,0.428,0.428,0.429,0.429,0.429,0.43,0.43,0.43,0.431,0.431,0.431,0.431,0.432,0.432,0.432,0.432,0.432,0.432,0.433,0.433,0.433,0.433,0.433,0.433,0.433,0.433,0.433,0.434,0.434,0.434,0.434,0.434,0.435,0.435,0.435,0.435,0.436,0.436,0.436,0.437,0.437,0.437,0.438,0.438,0.438,0.438,0.439,0.439,0.439,0.439,0.439,0.439,0.439,0.44,0.44,0.44,0.44,0.44,0.441,0.441,0.441,0.442,0.442,0.442,0.443,0.443,0.443,0.443,0.443,0.444,0.444,0.444,0.445,0.446,0.446,0.447,0.45,0.455,0.46,0,0.47,0.475,0.479,0.483,0.484,0.485,0.485,0.486,0.486,0.485,0.484,0.483,0.481,0.48,0.477,0.475,0.472,0.469,0.466,0.464,0.463,0.461,0.46,0.459,0.458,0.458,0.457,0.456,0.456,0.456,0.455,0.455,0.455,0.454,0.454,0.454,0.454,0.454,0.454,0.454,0.454,0.454,0.454,0.454,0.454,0.454,0.454,0.454,0.454,0.454,0.455,0.455,0.455,0.455,0.455,0.455,0.456,0.456,0.456,0.456,0.457,0.457,0.457,0.458,0.458,0.458,0.458,0.459,0.459,0.46,0.46,0.46,0.46,0.461,0.461,0.461,0.462,0.462,0.462,0.463,0.463,0.463,0.464,0.464,0.464,0.464,0.465,0.465,0.465,0.465,0.465,0.465,0.466,0.466,0.466,0.467,0.467,0.468,0.468,0.469,0.469,0.469,0.47,0.47,0.47,0.47,0.47,0.47,0.471,0.471,0.471,0.472,0.472,0.473,0.473,0.474,0.474,0.474,0.475,0.475,0.475,0.475,0.475,0.476,0.476,0.476,0.477,0.477,0.477,0.477,0.477,0.477,0.478,0.478,0.478,0.478,0.478,0.478,0.479,0.479,0.479,0.479,0.48,0.48,0.48,0.48,0.48,0.481,0.481,0.481,0.481,0.482,0.483,0.483,0.483,0.484,0.484,0.485,0.486,0.486,0.487
0,0,0,0,0,0,0,0,0,0,0,0,0,0,0,0,0,0,0,0,0,0,0,0,0,0,0,0,0,0,0,0,0,0,0,0,0,0,0,0,0,0,0,0,0,0,0.413,0.413,0.413,0.413,0.413,0.413,0.413,0.413,0.413,0.413,0.414,0.414,0.414,0.414,0.415,0.414,0.415,0.415,0.415,0.415,0.415,0.415,0.415,0.415,0.415,0.415,0.415,0.415,0.415,0.415,0.415,0.414,0.414,0.414,0.413,0.412,0.412,0.41,0,0,0,0,0.397,0.394,0.393,0.392,0.39,0.389,0.388,0.387,0.387,0.387,0.387,0.387,0.387,0.387,0.387,0.387,0.388,0.388,0.388,0.388,0.389,0.389,0.389,0.389,0.39,0.389,0.39,0.39,0.39,0.39,0.391,0.391,0.391,0.391,0.391,0.392,0.392,0.392,0.392,0.392,0.393,0.393,0.393,0.393,0.394,0.394,0.394,0.394,0.394,0.394,0.395,0.395,0.395,0.396,0.396,0.396,0.397,0.397,0.397,0.398,0.398,0.398,0.398,0.398,0.399,0.399,0.399,0.399,0.399,0.399,0.399,0.399,0.399,0.399,0.399,0.4,0.4,0.4,0.4,0.4,0.4,0.401,0.401,0.401,0.401,0.401,0.401,0.401,0.402,0.402,0.402,0.403,0.403,0.403,0.403,0.403,0.403,0.403,0.404,0.404,0.404,0.404,0.404,0.404,0.405,0.405,0.405,0.406,0.406,0.406,0.406,0.406,0.406,0.406,0.406,0.406,0.406,0.407,0.407,0.407,0.407,0.407,0.408,0.408,0.409,0.409,0.409,0.409,0.409,0.41,0.409,0.41,0.41,0.41,0.41,0.411,0.411,0.412,0.412,0.412,0.412,0.412,0.413,0.413,0.413,0.413,0.413,0.413,0.413,0.414,0.414,0.414,0.414,0.415,0.415,0.415,0.415,0.415,0.416,0.416,0.416,0.416,0.416,0.417,0.417,0.417,0.417,0.417,0.417,0.417,0.417,0.417,0.418,0.418,0.418,0.419,0.419,0.419,0.419,0.419,0.42,0.42,0.42,0.42,0.421,0.421,0.421,0.421,0.421,0.421,0.422,0.422,0.422,0.423,0.423,0.423,0.423,0.423,0.423,0.423,0.424,0.424,0.424,0.425,0.425,0.425,0.425,0.425,0.425,0.425,0.425,0.425,0.425,0.426,0.426,0.427,0.427,0.427,0.428,0.428,0.428,0.428,0.429,0.429,0.429,0.43,0.43,0.43,0.431,0.431,0.431,0.431,0.431,0.431,0.432,0.432,0.432,0.432,0.432,0.432,0.432,0.432,0.432,0.432,0.433,0.433,0.433,0.434,0.434,0.434,0.434,0.434,0.434,0.435,0.435,0.435,0.436,0.436,0.436,0.437,0.437,0.437,0.437,0.438,0.438,0.438,0.438,0.438,0.438,0.438,0.439,0.439,0.439,0.439,0.439,0.439,0.44,0.44,0.441,0.441,0.441,0.442,0.442,0.442,0.442,0.443,0.443,0.443,0.443,0.444,0.444,0.445,0.446,0.447,0.451,0.456,0.46,0.465,0.47,0.474,0.479,0.483,0.483,0.484,0.484,0.484,0.485,0.484,0.484,0.483,0.481,0.48,0.477,0.475,0.472,0.469,0.466,0.464,0.462,0.46,0.459,0.458,0.457,0.457,0.456,0.456,0.456,0.455,0.455,0.455,0.454,0.454,0.454,0.454,0.454,0.453,0.453,0.453,0.453,0.453,0.453,0.453,0.453,0.453,0.453,0.453,0.453,0.453,0.454,0.454,0.454,0.454,0.455,0.455,0.455,0.455,0.456,0.455,0.456,0.456,0.457,0.457,0.457,0.458,0.458,0.458,0.458,0.459,0.459,0.459,0.459,0.46,0.46,0.46,0.461,0.461,0.461,0.462,0.462,0.462,0.463,0.463,0.463,0.463,0.464,0.464,0.464,0.464,0.465,0.465,0.465,0.465,0.466,0.466,0.466,0.467,0.467,0.468,0.468,0.469,0.469,0.469,0.469,0.469,0.469,0.47,0.47,0.47,0.47,0.471,0.471,0.472,0.472,0.473,0.473,0.473,0.474,0.474,0.474,0.474,0.475,0.475,0.475,0.475,0.476,0.476,0.477,0.476,0.477,0.477,0.477,0.477,0.477,0.477,0.478,0.478,0.478,0.478,0.478,0.478,0.479,0.479,0.479,0.479,0.48,0.48,0.48,0.48,0.481,0.481,0.482,0.482,0.483,0.483,0.484,0.484,0.485,0.485,0.486
0,0,0,0,0,0,0,0,0,0,0,0,0,0,0,0,0,0,0,0,0,0,0,0,0,0,0,0,0,0,0,0,0,0,0,0,0,0,0,0,0,0,0,0,0,0,0.412,0.412,0.412,0.412,0.412,0.412,0.412,0.412,0.412,0.413,0.413,0.413,0.413,0.413,0.413,0.413,0.414,0.414,0.414,0.414,0.414,0.414,0.414,0.414,0.414,0.414,0.414,0.414,0.414,0.414,0.414,0.414,0.414,0.414,0.413,0.413,0.412,0.41,0.409,0,0,0.4,0.397,0.394,0.393,0.391,0.39,0.389,0.387,0.387,0.386,0.386,0.386,0.386,0.386,0.386,0.387,0.387,0.387,0.387,0.387,0.388,0.388,0.388,0.388,0.388,0.389,0.389,0.389,0.389,0.39,0.39,0.39,0.39,0.391,0.391,0.391,0.391,0.391,0.391,0.392,0.392,0.392,0.393,0.393,0.393,0.393,0.393,0.393,0.393,0.394,0.394,0.394,0.395,0.395,0.395,0.395,0.396,0.396,0.397,0.397,0.397,0.397,0.397,0.398,0.398,0.398,0.398,0.398,0.398,0.398,0.398,0.398,0.398,0.398,0.399,0.399,0.399,0.399,0.399,0.4,0.399,0.4,0.4,0.4,0.4,0.401,0.401,0.401,0.401,0.401,0.402,0.402,0.402,0.402,0.402,0.402,0.403,0.403,0.403,0.403,0.403,0.403,0.403,0.403,0.404,0.404,0.404,0.405,0.405,0.405,0.405,0.405,0.405,0.406,0.406,0.406,0.406,0.406,0.406,0.406,0.406,0.406,0.407,0.407,0.407,0.408,0.408,0.408,0.408,0.409,0.409,0.409,0.409,0.409,0.409,0.409,0.41,0.41,0.411,0.411,0.411,0.412,0.412,0.412,0.412,0.412,0.412,0.412,0.412,0.413,0.413,0.413,0.413,0.414,0.414,0.414,0.415,0.415,0.415,0.415,0.415,0.415,0.416,0.416,0.416,0.416,0.416,0.416,0.416,0.417,0.417,0.417,0.417,0.417,0.417,0.417,0.418,0.418,0.418,0.419,0.419,0.419,0.419,0.419,0.419,0.42,0.42,0.42,0.42,0.42,0.421,0.421,0.421,0.421,0.422,0.422,0.422,0.422,0.423,0.423,0.423,0.423,0.423,0.423,0.423,0.424,0.424,0.424,0.424,0.424,0.424,0.425,0.425,0.425,0.425,0.425,0.426,0.426,0.426,0.427,0.427,0.427,0.427,0.428,0.428,0.428,0.429,0.429,0.43,0.43,0.43,0.43,0.431,0.431,0.431,0.431,0.431,0.431,0.431,0.431,0.431,0.431,0.431,0.431,0.431,0.432,0.432,0.432,0.433,0.433,0.433,0.433,0.434,0.434,0.434,0.434,0.434,0.435,0.435,0.435,0.436,0.436,0.436,0.437,0.436,0.437,0.437,0.437,0.437,0.437,0.438,0.438,0.438,0.439,0.439,0.439,0.439,0.439,0.44,0.44,0.44,0.44,0.441,0.441,0.441,0.442,0.442,0.442,0.442,0.443,0.443,0.444,0.445,0.446,0.447,0.451,0.456,0.46,0,0.47,0.474,0.478,0.482,0.483,0.483,0.484,0.484,0.484,0.484,0.483,0.482,0.481,0.479,0.477,0.475,0.472,0,0.466,0.464,0.462,0.46,0.458,0.457,0.457,0.456,0.456,0.455,0.455,0.455,0.455,0.454,0.454,0.454,0.453,0.453,0.453,0.453,0.453,0.452,0.452,0.452,0.452,0.452,0.452,0.452,0.452,0.452,0.453,0.453,0.453,0.453,0.453,0.454,0.454,0.454,0.454,0.454,0.455,0.455,0.455,0.455,0.456,0.456,0.457,0.457,0.457,0.457,0.457,0.458,0.458,0.458,0.458,0.458,0.459,0.459,0.46,0.46,0.46,0.461,0.461,0.461,0.462,0.462,0.462,0.463,0.463,0.463,0.463,0.464,0.464,0.464,0.465,0.465,0.465,0.465,0.466,0.466,0.466,0.466,0.467,0.468,0.468,0.468,0.468,0.468,0.468,0.469,0.469,0.469,0.47,0.47,0.47,0.471,0.471,0.472,0.472,0.473,0.473,0.473,0.473,0.473,0.474,0.474,0.474,0.475,0.475,0.475,0.476,0.475,0.476,0.476,0.476,0.476,0.477,0.477,0.477,0.477,0.477,0.477,0.478,0.478,0.478,0.478,0.478,0.478,0.479,0.479,0.479,0.48,0.48,0.48,0.481,0.481,0.482,0.482,0.483,0.483,0.484,0.484,0.485
0,0,0,0,0,0,0,0,0,0,0,0,0,0,0,0,0,0,0,0,0,0,0,0,0,0,0,0,0,0,0,0,0,0,0,0,0,0,0,0,0,0,0,0,0,0,0,0.411,0.411,0.411,0.411,0.411,0.411,0.412,0.412,0.412,0.412,0.412,0.412,0.412,0.413,0.413,0.413,0.413,0.413,0.413,0.413,0.413,0.413,0.413,0.413,0.413,0.413,0.414,0.414,0.414,0.414,0.414,0.414,0.414,0.413,0.413,0.412,0.41,0.409,0.406,0.403,0.4,0.397,0.395,0.393,0.391,0.39,0.388,0.387,0.386,0.386,0.385,0.385,0.386,0.386,0.386,0.386,0.386,0.386,0.387,0.387,0.387,0.387,0.387,0.387,0.388,0.388,0.388,0.388,0.388,0.389,0.389,0.389,0.39,0.39,0.39,0.39,0.391,0.391,0.391,0.391,0.391,0.392,0.392,0.392,0.392,0.393,0.393,0.393,0.393,0.393,0.393,0.393,0.394,0.394,0.394,0.395,0.395,0.396,0.396,0.397,0.397,0.397,0.397,0.397,0.397,0.397,0.397,0.397,0.397,0.397,0.397,0.398,0.398,0.398,0.398,0.398,0.399,0.399,0.399,0.399,0.399,0.399,0.399,0.399,0.4,0.4,0.4,0.4,0.4,0.401,0.401,0.401,0.401,0.401,0.401,0.402,0.402,0.402,0.402,0.402,0.402,0.402,0.403,0.403,0.403,0.404,0.404,0.404,0.404,0.404,0.404,0.405,0.405,0.405,0.405,0.405,0.405,0.405,0.406,0.406,0.406,0.406,0.406,0.407,0.407,0.407,0.407,0.407,0.407,0.408,0.408,0.408,0.408,0.408,0.409,0.409,0.409,0.409,0.41,0.41,0.41,0.41,0.411,0.411,0.411,0.411,0.411,0.411,0.412,0.412,0.412,0.412,0.412,0.413,0.413,0.413,0.414,0.414,0.414,0.415,0.415,0.415,0.415,0.415,0.415,0.415,0.415,0.416,0.416,0.416,0.416,0.416,0.416,0.416,0.417,0.417,0.417,0.417,0.418,0.418,0.418,0.418,0.419,0.419,0.419,0.419,0.419,0.419,0.419,0.419,0.42,0.42,0.421,0.421,0.421,0.421,0.421,0.422,0.422,0.422,0.422,0.422,0.422,0.423,0.423,0.423,0.423,0.423,0.423,0.423,0.423,0.424,0.424,0.424,0.424,0.425,0.425,0.425,0.425,0.426,0.426,0.426,0.426,0.427,0.427,0.428,0.428,0.428,0.429,0.429,0.429,0.43,0.43,0.43,0.43,0.43,0.43,0.43,0.43,0.43,0.43,0.431,0.431,0.431,0.431,0.431,0.431,0.432,0.432,0.432,0.432,0.433,0.433,0.433,0.434,0.434,0.434,0.434,0.435,0.435,0.435,0.435,0.435,0.435,0.436,0.436,0.436,0.436,0.436,0.437,0.437,0.437,0.437,0.438,0.438,0.438,0.438,0.439,0.439,0.439,0.439,0.439,0.44,0.44,0.441,0.441,0.441,0.441,0.442,0.442,0.443,0.443,0.444,0.445,0.447,0.451,0.456,0.46,0.464,0.469,0.473,0.478,0.481,0.482,0.482,0.483,0.483,0.483,0.483,0.483,0.482,0.481,0.479,0.477,0.475,0.472,0.469,0.466,0.464,0.461,0.459,0.458,0.457,0.456,0.456,0.455,0.455,0.455,0.454,0.454,0.454,0.453,0.453,0.453,0.452,0.452,0.452,0.452,0.452,0.452,0.451,0.451,0.451,0.451,0.452,0.452,0.452,0.452,0.452,0.452,0.452,0.452,0.453,0.453,0.453,0.453,0.454,0.454,0.454,0.454,0.455,0.455,0.455,0.456,0.456,0.456,0.456,0.456,0.457,0.457,0.457,0.457,0.457,0.458,0.458,0.458,0.459,0.459,0.46,0.46,0.46,0.461,0.461,0.461,0.462,0.462,0.462,0.463,0.463,0.463,0.463,0.464,0.464,0.464,0.465,0.465,0.465,0.465,0.466,0.466,0.466,0.466,0.467,0.467,0.467,0.468,0.468,0.468,0.469,0.469,0.469,0.47,0.47,0.47,0.471,0.471,0.471,0.472,0.472,0.472,0.473,0.473,0.473,0.473,0.474,0.474,0.474,0.475,0.475,0.475,0.475,0.475,0.476,0.476,0.476,0.476,0.477,0.477,0.477,0.477,0.477,0.477,0.477,0.478,0.478,0.478,0.478,0.478,0.479,0.479,0.48,0.48,0.48,0.481,0.481,0.482,0.482,0.483,0.483,0.484
0,0,0,0,0,0,0,0,0,0,0,0,0,0,0,0,0,0,0,0,0,0,0,0,0,0,0,0,0,0,0,0,0,0,0,0,0,0,0,0,0,0,0,0,0,0,0,0.41,0.41,0.41,0.41,0.41,0.41,0.411,0.411,0.411,0.411,0.411,0.411,0.411,0.412,0.412,0.412,0.412,0.412,0.412,0,0,0.412,0.412,0.412,0.413,0.413,0.413,0.413,0.413,0.414,0.414,0.414,0.414,0.413,0.413,0.412,0.41,0.409,0.406,0.404,0.401,0.398,0.395,0.393,0.391,0.389,0.388,0.387,0.386,0.385,0.385,0.385,0.385,0.385,0.385,0.385,0.385,0.386,0.386,0.386,0.386,0.386,0.386,0.387,0.387,0.387,0.387,0.387,0.388,0.388,0.388,0.389,0.389,0.389,0.39,0.39,0.39,0.39,0.39,0.391,0.391,0.391,0.391,0.392,0.392,0.392,0.392,0.392,0.392,0.392,0.392,0.393,0.393,0.394,0.394,0.394,0.394,0.395,0.395,0.396,0.396,0.396,0.396,0.396,0.396,0.397,0.397,0.397,0.397,0.397,0.397,0.397,0.397,0.397,0.398,0.398,0.398,0.398,0.399,0.399,0.399,0.399,0.399,0.399,0.399,0.399,0.399,0.399,0.399,0.4,0.4,0.4,0.401,0.401,0.401,0.401,0.401,0.401,0.401,0.401,0.402,0.402,0.402,0.402,0.403,0.403,0.403,0.404,0.404,0.404,0.404,0.404,0.404,0.404,0.404,0.405,0.404,0.405,0.405,0.405,0.405,0.406,0.406,0.406,0.406,0.406,0.406,0.407,0.407,0.407,0.407,0.407,0.407,0.407,0.408,0.408,0.408,0.409,0.409,0.409,0.41,0.41,0.41,0.41,0.41,0.41,0.41,0.41,0.411,0.411,0.411,0.412,0.412,0.412,0.412,0.413,0.413,0.413,0.414,0.414,0.414,0.414,0.414,0.415,0.415,0.415,0.415,0.415,0.415,0.415,0.415,0.415,0.416,0.416,0.416,0.416,0.417,0.417,0.417,0.417,0.417,0.417,0.418,0.418,0.418,0.418,0.418,0.418,0.419,0.419,0.419,0.419,0.42,0.42,0.42,0.42,0.421,0.421,0.421,0.421,0.421,0.421,0.421,0.422,0.422,0.422,0.422,0.422,0.422,0.423,0.423,0.423,0.423,0.423,0.424,0.424,0.424,0.425,0.425,0.425,0.425,0.425,0.425,0.426,0.426,0.427,0.427,0.427,0.428,0.428,0.428,0.428,0.429,0.429,0.429,0.429,0.429,0.429,0.429,0.429,0.429,0.43,0.43,0.43,0.43,0.43,0.431,0.431,0.431,0.431,0.431,0.432,0.432,0.432,0.433,0.433,0.433,0.434,0.434,0.434,0.434,0.434,0.435,0.435,0.435,0.435,0.435,0.435,0.435,0.436,0.436,0.437,0.437,0.437,0.437,0.437,0.437,0.438,0.438,0.439,0.439,0.439,0.439,0.439,0.44,0.44,0.441,0.441,0.441,0.442,0.442,0.443,0.444,0.446,0.448,0.452,0.456,0.461,0,0.469,0.474,0.477,0.48,0.481,0.481,0.482,0.482,0.483,0.483,0.482,0.481,0.48,0.479,0.477,0.475,0.472,0.469,0.466,0.464,0.461,0.459,0.457,0.456,0.456,0.455,0.455,0.454,0.454,0.454,0.453,0.453,0.453,0.452,0.452,0.452,0.451,0.451,0.451,0.451,0.451,0.451,0.451,0.451,0.451,0.451,0.451,0.451,0.451,0.451,0.451,0.451,0.452,0.452,0.452,0.453,0.453,0.453,0.453,0.453,0.454,0.454,0.454,0.454,0.455,0.455,0.455,0.455,0.455,0.456,0.456,0.456,0.456,0.456,0.457,0.457,0.457,0.458,0.458,0.458,0.459,0.459,0.46,0.46,0.46,0.461,0.461,0.461,0.462,0.462,0.462,0.463,0.463,0.463,0.463,0.464,0.464,0.464,0.465,0.465,0.465,0.466,0.466,0.466,0.466,0.466,0.467,0.467,0.468,0.468,0.468,0.468,0.469,0.469,0.469,0.47,0.47,0.47,0.471,0.471,0.471,0.471,0.472,0.472,0.473,0.473,0.473,0.473,0.474,0.474,0.474,0.474,0.475,0.475,0.475,0.475,0.475,0.475,0.476,0.476,0.476,0.476,0.477,0.477,0.477,0.477,0.477,0.477,0.478,0.478,0.478,0.478,0.479,0.48,0.48,0.48,0.481,0.481,0.482,0.482,0.483
0,0,0,0,0,0,0,0,0,0,0,0,0,0,0,0,0,0,0,0,0,0,0,0,0,0,0,0,0,0,0,0,0,0,0,0,0,0,0,0,0,0,0,0,0,0,0,0.41,0.41,0.41,0.409,0.41,0.41,0.41,0.41,0.41,0.41,0.41,0.41,0.41,0.411,0.411,0.411,0.411,0,0,0.411,0.411,0.411,0.411,0.412,0.412,0.412,0.413,0.413,0.413,0.413,0.413,0.414,0.413,0.413,0.412,0.411,0.41,0.408,0.406,0.404,0.402,0.398,0.396,0.393,0.392,0.389,0.388,0.386,0.385,0.385,0.385,0.385,0.385,0.385,0.385,0.385,0.385,0.385,0.385,0.385,0.385,0.386,0.386,0.386,0.386,0.386,0.387,0.387,0.387,0.388,0.388,0.388,0.388,0.389,0.389,0.389,0.389,0.389,0.39,0.39,0.39,0.391,0.391,0.391,0.391,0.391,0.391,0.391,0.391,0.392,0.392,0.392,0.393,0.393,0.393,0.393,0.394,0.394,0.395,0.395,0.395,0.395,0.395,0.396,0.396,0.396,0.396,0.396,0.396,0.396,0.396,0.396,0.396,0.397,0.397,0.397,0.398,0.398,0.398,0.398,0.398,0.398,0.398,0.398,0.398,0.398,0.398,0.398,0.399,0.399,0.399,0.399,0.4,0.4,0.4,0.4,0.401,0.401,0.401,0.401,0.401,0.401,0.401,0.402,0.402,0.402,0.403,0.403,0.403,0.403,0.403,0.403,0.403,0.404,0.404,0.404,0.404,0.404,0.404,0.404,0.405,0.405,0.406,0.406,0.406,0.406,0.406,0.406,0.406,0.406,0.406,0.406,0.406,0.407,0.407,0.407,0.408,0.408,0.408,0.408,0.409,0.409,0.409,0.409,0.409,0.409,0.41,0.41,0.41,0.41,0.41,0.411,0.411,0.412,0.412,0.412,0.412,0.413,0.413,0.413,0.413,0.414,0.414,0.414,0.414,0.414,0.414,0.414,0.415,0.415,0.415,0.415,0.415,0.415,0.415,0.416,0.416,0.416,0.416,0.417,0.417,0.417,0.417,0.417,0.417,0.417,0.417,0.417,0.418,0.418,0.418,0.419,0.419,0.419,0.419,0.419,0.42,0.42,0.42,0.42,0.42,0.42,0.421,0.421,0.421,0.421,0.421,0.421,0.422,0.422,0.422,0.422,0.422,0.423,0.423,0.423,0.423,0.424,0.424,0.424,0.424,0.424,0.425,0.425,0.425,0.426,0.426,0.426,0.427,0.428,0.428,0.428,0.428,0.428,0.428,0.428,0.428,0.428,0.428,0.429,0.429,0.429,0.429,0.429,0.429,0.429,0.43,0.43,0.43,0.431,0.431,0.431,0.431,0.432,0.432,0.432,0.433,0.433,0.433,0.434,0.434,0.434,0.434,0.434,0.434,0.434,0.435,0.434,0.435,0.435,0.435,0.436,0.436,0.436,0.436,0.436,0.436,0.437,0.437,0.438,0.438,0.438,0.438,0.439,0.439,0.44,0.44,0.44,0.441,0.442,0.442,0.443,0.444,0.446,0.449,0.453,0.457,0.461,0.465,0.47,0.473,0.477,0.48,0.48,0.481,0.481,0.481,0.482,0.482,0.481,0.481,0.48,0.479,0.477,0.475,0.472,0.469,0.466,0.464,0.461,0.458,0.457,0.456,0.455,0.454,0.454,0.454,0.453,0.453,0.453,0.452,0.452,0.452,0.451,0.451,0.451,0.45,0.45,0.45,0.45,0.45,0.45,0.45,0.45,0.45,0.45,0.45,0.45,0.45,0.45,0.451,0.451,0.451,0.451,0.452,0.452,0.452,0.452,0.453,0.453,0.453,0.453,0.454,0.454,0.454,0.454,0.454,0.455,0.455,0.455,0.455,0.455,0.455,0.456,0.456,0.456,0.456,0.457,0.457,0.457,0.458,0.458,0.459,0.459,0.46,0.46,0.46,0.461,0.461,0.461,0.462,0.462,0.462,0.463,0.463,0.463,0.464,0.464,0.464,0.464,0.465,0.465,0.465,0.466,0.466,0.466,0.466,0.467,0.467,0.467,0.468,0.468,0.468,0.469,0.469,0.469,0.469,0.47,0.47,0.47,0.47,0.471,0.471,0.471,0.472,0.472,0.472,0.473,0.473,0.473,0.474,0.474,0.474,0.474,0.474,0.474,0.475,0.475,0.475,0.475,0.475,0.475,0.476,0.476,0.476,0.477,0.477,0.477,0.477,0.477,0.478,0.478,0.478,0.479,0.479,0.48,0.48,0.48,0.481,0.481
0,0,0,0,0,0,0,0,0,0,0,0,0,0,0,0,0,0,0,0,0,0,0,0,0,0,0,0,0,0,0,0,0,0,0,0,0,0,0,0,0,0,0,0,0,0,0.409,0.409,0.409,0.409,0.409,0.409,0.409,0.409,0.409,0.409,0.41,0.41,0.41,0.41,0.41,0.41,0.41,0.41,0.41,0.41,0.41,0.41,0.41,0.411,0.411,0.411,0.412,0.412,0.412,0.412,0.413,0.413,0.413,0.413,0.413,0.412,0.41,0.409,0.408,0.406,0.404,0.402,0.399,0.396,0.394,0.392,0.389,0.387,0.386,0.385,0.385,0.384,0.384,0.384,0.384,0.384,0.384,0.384,0.385,0.385,0.385,0.385,0.385,0.385,0.385,0.386,0.386,0.386,0.386,0.387,0.387,0.387,0.387,0.388,0.388,0.388,0.389,0.389,0.389,0.389,0.389,0.39,0.39,0.39,0.39,0.39,0.39,0.391,0.391,0.391,0.391,0.391,0.391,0.392,0.392,0.392,0.393,0.393,0.393,0.394,0.394,0.394,0.394,0.395,0.395,0.395,0.395,0.395,0.395,0.395,0.395,0.395,0.395,0.396,0.396,0.396,0.397,0.397,0.397,0.397,0.398,0.398,0.398,0.398,0.398,0.398,0.398,0.398,0.398,0.398,0.398,0.398,0.399,0.399,0.399,0.399,0.4,0.4,0.4,0.4,0.401,0.401,0.401,0.401,0.401,0.401,0.402,0.402,0.402,0.402,0.402,0.403,0.403,0.403,0.403,0.403,0.403,0.403,0.403,0.404,0.404,0.404,0.404,0.404,0.405,0.405,0.405,0.405,0.405,0.405,0.405,0.406,0.406,0.406,0.406,0.406,0.407,0.407,0.407,0.407,0.407,0.408,0.408,0.409,0.409,0.409,0.409,0.409,0.409,0.409,0.409,0.41,0.41,0.41,0.411,0.411,0.411,0.412,0.412,0.412,0.412,0.413,0.413,0.413,0.413,0.413,0.413,0.413,0.414,0.414,0.414,0.414,0.414,0.415,0.415,0.415,0.415,0.415,0.415,0.416,0.416,0.416,0.416,0.416,0.416,0.417,0.417,0.417,0.417,0.417,0.417,0.418,0.418,0.418,0.419,0.419,0.419,0.419,0.419,0.419,0.419,0.419,0.419,0.42,0.42,0.42,0.42,0.421,0.421,0.421,0.421,0.421,0.421,0.422,0.422,0.422,0.422,0.423,0.423,0.423,0.423,0.423,0.423,0.424,0.424,0.425,0.425,0.425,0.426,0.426,0.426,0.427,0.427,0.427,0.427,0.427,0.427,0.427,0.428,0.428,0.428,0.428,0.428,0.428,0.428,0.428,0.428,0.429,0.429,0.429,0.43,0.43,0.43,0.431,0.431,0.431,0.432,0.432,0.432,0.432,0.433,0.433,0.433,0.433,0.433,0.433,0.434,0.434,0.434,0.434,0.434,0.434,0.435,0.435,0.435,0.435,0.435,0.435,0.436,0.436,0.436,0.437,0.437,0.437,0.438,0.438,0.439,0.439,0.44,0.44,0.441,0.443,0.443,0.444,0.446,0.449,0.453,0.458,0.462,0.466,0.47,0.474,0.477,0.479,0.48,0.48,0.481,0.481,0.481,0.481,0.481,0.481,0.48,0.479,0.477,0.474,0.472,0.469,0.466,0.463,0.461,0.458,0.457,0.456,0.455,0.454,0.454,0.453,0.453,0.453,0.452,0.452,0.451,0.451,0.45,0.45,0.45,0.449,0.449,0.449,0.449,0.449,0.449,0.449,0.449,0.449,0.449,0.449,0.449,0.449,0.45,0.45,0.45,0.45,0.45,0.451,0.451,0.451,0.451,0.452,0.452,0.452,0.452,0.453,0.453,0.453,0.453,0.454,0.454,0.454,0.454,0.454,0.454,0.454,0.455,0.455,0.455,0.455,0.456,0.456,0.456,0.457,0.457,0.458,0.458,0.458,0.459,0.459,0.46,0.46,0.46,0.461,0.461,0.461,0.462,0.462,0.462,0.463,0.463,0.463,0.464,0.464,0.464,0.465,0.465,0.465,0.465,0.466,0.466,0.466,0.467,0.467,0.467,0.468,0.468,0.468,0.468,0.469,0.469,0.469,0.469,0.47,0.47,0.47,0.471,0.471,0.471,0.471,0.472,0.472,0.472,0.473,0.473,0.473,0.473,0.473,0.474,0.474,0.474,0.474,0.474,0.474,0.475,0.475,0.475,0.475,0.476,0.476,0.476,0.477,0.477,0.477,0.477,0.477,0.478,0.478,0.478,0.479,0.48,0.48,0.48
0,0,0,0,0,0,0,0,0,0,0,0,0,0,0,0,0,0,0,0,0,0,0,0,0,0,0,0,0,0,0,0,0,0,0,0,0,0,0,0,0,0,0,0,0,0.408,0.408,0.408,0.408,0,0.408,0,0,0.409,0.409,0.409,0.409,0.409,0.409,0.409,0.409,0.409,0.409,0.409,0.409,0.409,0.41,0.41,0.41,0.41,0.41,0.411,0.411,0.412,0.412,0.412,0.412,0.413,0.413,0.413,0.412,0.411,0.41,0.409,0.408,0.406,0.404,0.402,0.399,0.397,0.394,0.392,0.39,0.387,0.386,0.385,0.384,0.384,0.384,0.383,0.383,0.384,0.384,0.384,0.384,0.384,0.384,0.384,0.385,0.385,0.385,0.385,0.385,0.385,0.385,0.386,0.386,0.387,0.387,0.387,0.387,0.388,0.388,0.388,0.388,0.389,0.389,0.389,0.389,0.389,0.39,0.39,0.39,0.39,0.39,0.39,0.39,0.39,0.391,0.391,0.391,0.392,0.392,0.392,0.392,0.393,0.393,0.393,0.394,0.394,0.394,0.394,0.394,0.394,0.394,0.394,0.394,0.394,0.395,0.395,0.395,0.396,0.396,0.396,0.396,0.397,0.397,0.397,0.397,0.397,0.397,0.397,0.397,0.397,0.397,0.397,0.397,0.398,0.398,0.398,0.399,0.399,0.399,0.4,0.4,0.4,0.4,0.4,0.401,0.401,0.401,0.401,0.401,0.401,0.401,0.402,0.402,0.402,0.402,0.402,0.402,0.403,0.403,0.403,0.403,0.403,0.403,0.403,0.404,0.404,0.404,0.404,0.404,0.404,0.404,0.404,0.404,0.404,0.404,0.405,0.405,0.405,0.406,0.406,0.407,0.407,0.407,0.407,0.407,0.408,0.408,0.408,0.408,0.408,0.408,0.409,0.409,0.409,0.409,0.409,0.41,0.41,0.411,0.411,0.411,0.411,0.411,0.412,0.412,0.412,0.412,0.412,0.412,0.413,0.413,0.413,0.413,0.413,0.414,0.414,0.414,0.414,0.415,0.415,0.415,0.415,0.415,0.415,0.415,0.415,0.416,0.416,0.416,0.416,0.416,0.417,0.417,0.417,0.417,0.418,0.418,0.418,0.418,0.419,0.419,0.419,0.419,0.419,0.419,0.419,0.419,0.419,0.419,0.42,0.42,0.42,0.42,0.421,0.421,0.421,0.421,0.421,0.422,0.422,0.422,0.422,0.422,0.423,0.423,0.423,0.424,0.424,0.424,0.425,0.425,0.425,0.425,0.426,0.426,0.426,0.426,0.426,0.427,0.427,0.427,0.427,0.427,0.427,0.427,0.427,0.427,0.427,0.428,0.428,0.428,0.428,0.429,0.429,0.43,0.43,0.431,0.431,0.431,0.431,0.431,0.432,0.432,0.432,0.432,0.432,0.432,0.433,0.433,0.433,0.433,0.433,0.433,0.434,0.434,0.434,0.434,0.434,0.434,0.434,0.435,0.435,0.436,0.436,0.436,0.437,0.437,0.438,0.438,0.439,0.439,0.44,0.441,0.443,0.444,0.445,0.446,0.45,0.455,0.46,0.463,0.468,0.471,0.474,0.477,0.478,0.479,0.48,0.48,0.48,0.48,0.48,0.48,0.48,0.479,0.478,0.476,0.474,0.471,0.469,0.466,0.464,0.461,0.458,0.457,0.455,0.455,0.454,0.453,0.453,0.452,0.452,0.452,0.451,0.451,0.45,0.45,0.449,0.449,0.449,0.448,0.448,0.448,0.448,0.448,0.448,0.448,0.448,0.448,0.448,0.448,0.448,0.449,0.449,0.449,0.449,0.449,0.45,0.45,0.45,0.45,0.451,0.451,0.451,0.451,0.452,0.452,0.452,0.453,0.453,0.453,0.453,0.453,0.453,0.453,0.454,0.454,0.454,0.454,0.455,0.455,0.455,0.455,0.456,0.456,0.457,0.457,0.457,0.458,0.458,0.458,0.459,0.46,0.46,0.46,0.46,0.461,0.461,0.462,0.462,0.462,0.463,0.463,0.464,0.464,0.464,0.464,0.464,0.465,0.465,0.465,0.466,0.466,0.466,0.466,0.467,0.467,0.468,0.468,0.468,0.468,0.468,0.469,0.469,0.469,0.469,0.47,0.47,0.47,0.471,0.471,0.471,0.471,0.472,0.472,0.472,0.472,0.473,0.473,0.473,0.473,0.473,0.473,0.474,0.474,0.474,0.474,0.475,0.475,0.475,0.475,0.476,0.476,0.476,0.476,0.477,0.477,0.477,0.477,0.478,0.478,0.479,0.479
0,0,0,0,0,0,0,0,0,0,0,0,0,0,0,0,0,0,0,0,0,0,0,0,0,0,0,0,0,0,0,0,0,0,0,0,0,0,0,0,0,0,0,0,0,0,0.408,0.408,0.408,0.408,0.408,0.408,0.408,0.409,0.409,0.409,0.409,0.409,0.409,0.409,0.409,0.409,0.409,0.409,0.409,0.409,0.409,0.409,0.409,0.41,0.41,0.41,0.411,0.411,0.412,0.412,0.412,0.412,0.412,0.412,0.412,0.411,0.41,0.409,0.408,0.406,0.404,0.402,0.4,0.397,0.395,0,0.39,0.388,0.386,0.385,0.384,0.383,0.383,0.383,0.383,0.383,0.383,0.383,0.383,0.384,0.384,0.384,0.384,0.384,0.384,0.385,0.385,0.385,0.385,0.385,0.386,0.386,0.386,0.387,0.387,0.387,0.387,0.388,0.388,0.388,0.388,0.388,0.389,0.389,0.389,0.389,0.389,0.389,0.389,0.389,0.39,0.39,0.39,0.39,0.391,0.391,0.391,0.391,0.392,0.392,0.392,0.392,0.393,0.393,0.393,0.393,0.393,0.393,0.393,0.393,0.393,0.394,0.394,0.394,0.394,0.394,0.395,0.395,0.395,0.396,0.396,0.396,0.396,0.397,0.396,0.396,0.396,0.396,0.396,0.396,0.397,0.397,0.397,0.398,0.398,0.399,0.399,0.399,0.399,0.4,0.4,0.4,0.4,0.4,0.4,0.401,0.401,0.401,0.401,0.401,0.401,0.401,0.402,0.402,0.402,0.402,0.402,0.402,0.402,0.403,0.403,0.403,0.403,0.403,0.403,0.403,0.403,0.403,0.403,0.403,0.404,0.404,0.404,0.404,0.404,0.404,0.405,0.405,0.406,0.406,0.406,0.406,0.407,0.407,0.407,0.407,0.407,0.407,0.407,0.408,0.408,0.408,0.408,0.409,0.409,0.41,0.41,0.41,0.41,0.41,0.411,0.411,0.411,0.411,0.411,0.412,0.412,0.412,0.412,0.412,0.413,0.413,0.413,0.413,0.414,0.414,0.414,0.414,0.414,0.414,0.415,0.415,0.415,0.415,0.415,0.415,0.415,0.416,0.416,0.416,0.417,0.417,0.417,0.417,0.417,0.418,0.418,0.418,0.418,0.418,0.418,0.419,0.419,0.419,0.419,0.419,0.419,0.419,0.42,0.42,0.42,0.42,0.42,0.42,0.421,0.421,0.421,0.421,0.421,0.421,0.421,0.422,0.422,0.422,0.423,0.423,0.423,0.424,0.424,0.424,0.425,0.425,0.425,0.425,0.425,0.425,0.426,0.426,0.426,0.426,0.427,0.427,0.427,0.426,0.426,0.426,0.427,0.427,0.427,0.428,0.428,0.428,0.429,0.429,0.43,0.43,0.43,0.431,0.431,0.431,0.431,0.431,0.431,0.431,0.431,0.432,0.432,0.432,0.432,0.432,0.433,0.433,0.434,0.434,0.434,0.434,0.434,0.434,0.434,0.435,0.435,0.435,0.435,0.436,0.436,0.437,0.438,0.438,0.439,0.44,0.441,0.443,0.444,0.445,0.448,0.452,0.456,0.461,0.465,0.469,0.472,0.475,0.477,0.478,0.478,0.479,0.479,0.48,0.48,0.48,0.48,0.48,0.479,0.478,0.476,0.474,0.471,0.469,0.466,0.464,0.461,0.458,0.456,0.455,0.454,0.454,0.453,0.452,0.452,0.451,0.451,0.45,0.45,0.449,0.449,0.448,0.448,0.448,0.447,0.447,0.447,0.447,0.447,0.447,0.447,0.447,0.447,0.447,0.448,0.448,0.448,0.448,0.448,0.448,0.448,0.449,0.449,0.449,0.449,0.45,0.45,0.45,0.451,0.451,0.451,0.451,0.451,0.452,0.452,0.452,0.452,0.452,0.453,0.453,0.453,0.453,0.453,0.454,0.454,0.454,0.455,0.455,0.455,0.456,0.456,0.456,0.457,0.457,0.457,0.458,0.458,0.459,0.46,0.46,0.46,0.46,0.461,0.461,0.461,0.462,0.462,0.463,0.463,0.463,0.463,0.464,0.464,0.464,0.465,0.465,0.465,0.465,0.466,0.466,0.466,0.467,0.467,0.467,0.468,0.468,0.468,0.468,0.468,0.469,0.469,0.469,0.469,0.47,0.47,0.47,0.47,0.471,0.471,0.471,0.471,0.471,0.472,0.472,0.472,0.472,0.473,0.473,0.473,0.473,0.474,0.474,0.474,0.474,0.475,0.475,0.475,0.475,0.475,0.476,0.476,0.476,0.477,0.477,0.477,0.478,0.478
0,0,0,0,0,0,0,0,0,0,0,0,0,0,0,0,0,0,0,0,0,0,0,0,0,0,0,0,0,0,0,0,0,0,0,0,0,0,0,0,0,0,0,0,0,0,0.408,0.408,0.408,0.408,0.408,0.407,0.408,0.408,0.408,0.408,0.408,0.408,0.408,0.408,0.408,0.408,0.408,0.408,0.408,0.408,0.408,0.408,0.408,0.409,0.409,0.41,0.41,0.41,0.411,0.411,0.412,0.412,0.412,0.412,0.411,0.41,0.41,0.409,0.408,0.406,0.405,0.403,0.4,0.398,0,0,0.391,0.388,0.386,0.385,0.384,0.383,0.383,0.383,0.382,0.383,0.383,0.383,0.383,0.383,0.383,0.383,0.383,0.384,0.384,0.384,0.384,0.384,0.385,0.385,0.385,0.385,0.386,0.386,0.386,0.387,0.387,0.387,0.387,0.387,0.387,0.388,0.388,0.388,0.388,0.388,0.388,0.388,0.389,0.389,0.389,0.389,0.389,0.39,0.39,0.39,0.39,0.391,0.391,0.391,0.391,0.392,0.392,0.392,0.392,0.392,0.392,0.392,0.392,0.392,0.392,0.393,0.393,0.393,0.393,0.394,0.394,0.394,0.395,0.395,0.395,0.396,0.396,0.396,0.396,0.396,0.396,0.396,0.396,0.396,0.396,0.396,0.397,0.397,0.398,0.398,0.399,0.399,0.399,0.399,0.4,0.4,0.4,0.4,0.4,0.4,0.4,0.4,0.4,0.4,0.4,0.401,0.401,0.401,0.401,0.401,0.401,0.402,0.402,0.402,0.402,0.402,0.402,0.402,0.402,0.402,0.403,0.403,0.403,0.403,0.403,0.403,0.403,0.403,0.403,0.404,0.404,0.404,0.405,0.405,0.405,0.406,0.406,0.406,0.406,0.406,0.407,0.407,0.407,0.407,0.407,0.408,0.408,0.408,0.408,0.409,0.409,0.409,0.41,0.41,0.41,0.41,0.41,0.41,0.41,0.41,0.411,0.411,0.411,0.412,0.412,0.412,0.413,0.413,0.413,0.413,0.413,0.414,0.414,0.414,0.414,0.414,0.414,0.414,0.415,0.415,0.415,0.415,0.415,0.416,0.416,0.416,0.416,0.417,0.417,0.417,0.417,0.417,0.417,0.417,0.417,0.418,0.418,0.418,0.418,0.418,0.419,0.419,0.419,0.419,0.419,0.419,0.419,0.42,0.42,0.42,0.42,0.42,0.42,0.421,0.421,0.421,0.421,0.421,0.422,0.422,0.423,0.423,0.423,0.423,0.424,0.424,0.424,0.425,0.425,0.425,0.425,0.425,0.425,0.425,0.426,0.426,0.425,0.425,0.425,0.425,0.426,0.426,0.426,0.427,0.427,0.427,0.428,0.429,0.429,0.429,0.43,0.43,0.43,0.431,0.431,0.431,0.431,0.431,0.431,0.431,0.431,0.431,0.432,0.432,0.432,0.432,0.433,0.433,0.433,0.433,0.433,0.433,0.434,0.434,0.434,0.434,0.434,0.435,0.436,0.437,0.437,0.437,0.438,0.439,0.441,0.443,0.445,0.446,0.449,0.454,0,0,0.467,0.47,0.473,0.475,0.476,0.478,0.478,0.478,0.479,0.479,0.479,0.479,0.479,0.479,0.478,0.478,0.476,0.474,0.471,0.469,0.466,0.464,0.461,0.458,0.456,0.455,0.454,0.453,0.452,0.452,0.451,0.451,0.45,0.45,0.449,0.449,0.448,0.448,0.447,0.447,0.447,0.447,0.446,0.446,0.446,0.446,0.446,0.446,0.446,0.447,0.447,0.447,0.447,0.447,0.447,0.448,0.447,0.448,0.448,0.448,0.448,0.449,0.449,0.449,0.45,0.45,0.45,0.45,0.451,0.451,0.451,0.451,0.452,0.452,0.452,0.452,0.452,0.452,0.453,0.453,0.454,0.454,0.454,0.454,0.454,0.455,0.455,0.455,0.456,0.456,0.456,0.457,0.457,0.458,0.458,0.458,0.459,0.459,0.46,0.46,0.46,0.461,0.461,0.462,0.462,0.462,0.463,0.463,0.463,0.464,0.464,0.464,0.465,0.465,0.465,0.465,0.466,0.466,0.466,0.466,0.466,0.467,0.467,0.467,0.468,0.468,0.468,0.468,0.469,0.469,0.469,0.469,0.47,0.47,0.47,0.47,0.47,0.471,0.471,0.471,0.471,0.471,0.471,0.471,0.472,0.472,0.473,0.473,0.473,0.473,0.474,0.474,0.474,0.474,0.475,0.475,0.475,0.475,0.476,0.476,0.477,0.477,0.477
0,0,0,0,0,0,0,0,0,0,0,0,0,0,0,0,0,0,0,0,0,0,0,0,0,0,0,0,0,0,0,0,0,0,0,0,0,0,0,0,0,0,0,0,0,0,0.408,0.408,0.407,0.407,0.407,0.407,0.407,0.407,0.407,0.407,0.408,0.408,0.408,0.408,0.408,0.408,0.407,0.407,0.407,0.407,0.407,0.408,0.408,0.408,0.409,0.409,0.41,0.41,0.41,0.411,0.411,0.411,0.412,0.411,0.411,0.41,0.41,0.409,0.408,0.406,0.405,0.403,0.401,0.399,0,0.394,0.392,0.389,0.387,0.385,0.384,0.383,0.383,0.382,0.382,0.382,0.382,0.382,0.382,0.382,0.382,0.383,0.383,0.383,0.383,0.383,0.384,0.384,0.384,0.384,0.385,0.385,0.385,0.385,0.386,0.386,0.386,0.386,0.386,0.386,0.387,0.387,0.387,0.387,0.387,0.387,0.387,0.388,0.388,0.388,0.388,0.389,0.389,0.389,0.389,0.39,0.39,0.39,0.39,0.391,0.391,0.391,0.391,0.391,0.391,0.391,0.391,0.391,0.392,0.392,0.392,0.392,0.392,0.392,0.393,0.393,0.393,0.393,0.394,0.394,0.394,0.395,0.395,0.395,0.395,0.395,0.395,0.395,0.395,0.395,0.395,0.396,0.396,0.397,0.397,0.398,0.398,0.399,0.399,0.399,0.399,0.399,0.399,0.399,0.399,0.399,0.399,0.399,0.399,0.399,0.399,0.4,0.4,0.4,0.4,0.4,0.401,0.401,0.401,0.401,0.401,0.401,0.401,0.401,0.402,0.402,0.402,0.402,0.402,0.402,0.402,0.402,0.402,0.402,0.403,0.403,0.403,0.404,0.404,0.405,0.405,0.405,0.405,0.406,0.406,0.406,0.406,0.406,0.406,0.407,0.407,0.407,0.407,0.407,0.407,0.408,0.408,0.409,0.409,0.409,0.409,0.409,0.409,0.409,0.41,0.41,0.41,0.41,0.41,0.411,0.411,0.412,0.412,0.412,0.413,0.413,0.413,0.413,0.413,0.413,0.413,0.413,0.413,0.413,0.414,0.414,0.414,0.415,0.415,0.415,0.416,0.416,0.416,0.416,0.416,0.416,0.417,0.417,0.417,0.417,0.417,0.417,0.417,0.418,0.418,0.418,0.418,0.418,0.418,0.419,0.419,0.419,0.419,0.419,0.419,0.419,0.419,0.419,0.419,0.42,0.42,0.42,0.421,0.421,0.421,0.421,0.422,0.422,0.422,0.423,0.423,0.423,0.423,0.424,0.424,0.424,0.424,0.424,0.424,0.425,0.425,0.425,0.425,0.425,0.425,0.425,0.425,0.425,0.425,0.426,0.426,0.427,0.427,0.428,0.428,0.429,0.429,0.429,0.429,0.43,0.43,0.43,0.43,0.43,0.43,0.431,0.431,0.431,0.431,0.431,0.431,0.432,0.432,0.432,0.432,0.432,0.432,0.433,0.433,0.433,0.433,0.434,0.434,0.434,0.435,0.436,0.437,0.437,0.438,0.439,0.441,0.444,0.446,0.448,0.452,0.456,0,0,0,0.471,0.474,0.475,0.476,0.477,0.478,0.478,0.478,0.478,0.479,0.479,0.479,0.478,0.478,0.477,0.475,0.474,0.471,0.469,0.466,0.464,0.461,0.458,0.456,0.454,0.453,0.453,0.452,0.451,0.451,0.45,0.45,0.449,0.448,0.448,0.448,0.447,0.447,0.446,0.446,0.446,0.446,0.446,0.446,0.446,0.446,0.446,0.446,0.446,0.446,0.446,0.446,0.446,0.446,0.446,0.446,0.447,0.447,0.447,0.447,0.448,0.448,0.448,0.449,0.449,0.449,0.449,0.449,0.45,0.45,0.45,0.451,0.451,0.451,0.451,0.452,0.452,0.452,0.452,0.453,0.453,0.453,0.453,0.454,0.454,0.454,0.455,0.455,0.455,0.455,0.456,0.456,0.457,0.457,0.457,0.458,0.458,0.458,0.459,0.459,0.46,0.46,0.461,0.461,0.461,0.462,0.462,0.462,0.463,0.463,0.464,0.464,0.464,0.464,0.465,0.465,0.465,0.465,0.466,0.466,0.466,0.466,0.466,0.467,0.467,0.467,0.468,0.468,0.468,0.468,0.469,0.469,0.469,0.469,0.469,0.47,0.47,0.47,0.47,0.47,0.47,0.47,0.471,0.471,0.471,0.471,0.472,0.472,0.473,0.473,0.473,0.473,0.474,0.474,0.474,0.474,0.475,0.475,0.475,0.476,0.476,0.477
0,0,0,0,0,0,0,0,0,0,0,0,0,0,0,0,0,0,0,0,0,0,0,0,0,0,0,0,0,0,0,0,0,0,0,0,0,0,0,0,0,0,0,0,0,0,0.407,0.407,0.407,0.407,0.407,0.407,0.407,0.407,0.407,0.407,0.407,0.407,0.407,0.407,0.407,0.407,0.407,0.407,0.407,0.407,0.407,0.408,0.408,0.408,0.408,0.409,0.409,0.41,0.41,0.41,0.41,0.411,0.411,0.411,0.411,0.41,0.409,0.409,0.408,0.406,0.405,0.404,0.402,0.399,0.398,0.395,0.393,0.39,0.388,0.386,0.385,0.384,0.383,0.383,0.382,0.382,0.382,0.382,0.382,0.382,0.382,0.382,0.382,0.382,0.382,0.383,0.383,0.383,0.383,0.384,0.384,0.385,0.385,0.385,0.385,0.385,0.385,0.386,0.386,0.386,0.386,0.386,0.386,0.386,0.386,0.387,0.387,0.387,0.387,0.387,0.387,0.388,0.388,0.388,0.389,0.389,0.389,0.389,0.39,0.39,0.39,0.39,0.39,0.39,0.39,0.39,0.39,0.391,0.391,0.391,0.391,0.391,0.391,0.391,0.392,0.392,0.392,0.393,0.393,0.393,0.394,0.394,0.394,0.394,0.394,0.394,0.394,0.394,0.394,0.394,0.395,0.395,0.395,0.396,0.397,0.397,0.398,0.398,0.399,0.399,0.399,0.399,0.399,0.399,0.399,0.399,0.399,0.399,0.399,0.399,0.399,0.399,0.399,0.399,0.399,0.399,0.4,0.4,0.4,0.4,0.4,0.4,0.401,0.401,0.401,0.401,0.401,0.401,0.401,0.401,0.401,0.401,0.401,0.402,0.402,0.402,0.403,0.403,0.404,0.404,0.404,0.405,0.405,0.405,0.405,0.405,0.406,0.406,0.406,0.406,0.406,0.407,0.407,0.407,0.407,0.407,0.408,0.408,0.408,0.408,0.409,0.409,0.409,0.409,0.409,0.409,0.409,0.409,0.41,0.41,0.41,0.411,0.412,0.412,0.412,0.412,0.412,0.412,0.412,0.412,0.412,0.412,0.413,0.413,0.413,0.413,0.414,0.414,0.415,0.415,0.415,0.415,0.415,0.415,0.416,0.416,0.416,0.416,0.416,0.416,0.417,0.417,0.417,0.417,0.417,0.417,0.417,0.418,0.418,0.418,0.418,0.418,0.418,0.418,0.418,0.418,0.419,0.419,0.419,0.419,0.419,0.42,0.42,0.42,0.42,0.421,0.421,0.421,0.422,0.422,0.422,0.423,0.423,0.423,0.423,0.423,0.423,0.423,0.424,0.424,0.424,0.424,0.424,0.424,0.424,0.424,0.424,0.425,0.425,0.425,0.425,0.426,0.427,0.427,0.428,0.428,0.428,0.428,0.429,0.429,0.429,0.429,0.429,0.429,0.429,0.43,0.43,0.43,0.43,0.43,0.431,0.431,0.431,0.431,0.431,0.431,0.431,0.432,0.432,0.432,0.433,0.433,0.434,0.434,0.435,0.435,0.436,0.437,0.438,0.439,0.442,0.445,0.447,0.45,0.453,0.458,0,0,0,0.473,0.475,0.476,0.476,0.477,0.477,0.477,0.478,0.478,0.478,0.478,0.478,0.478,0.478,0.477,0.475,0.473,0.471,0.469,0.466,0.463,0.461,0.458,0.456,0.454,0.453,0.452,0.451,0.451,0.45,0.449,0.449,0.448,0.448,0.448,0.447,0.447,0.446,0.446,0.446,0.445,0.445,0.445,0.445,0.445,0.445,0.445,0.445,0.445,0.445,0.445,0.445,0.445,0.446,0.446,0.446,0.446,0.446,0.446,0.446,0.447,0.447,0.447,0.448,0.448,0.448,0.448,0.449,0.449,0.449,0.45,0.45,0.45,0.45,0.451,0.451,0.451,0.451,0.452,0.452,0.452,0.452,0.453,0.453,0.453,0.453,0.454,0.454,0.454,0.455,0.455,0.455,0.456,0.456,0.456,0.457,0.457,0.457,0.458,0.458,0.458,0.459,0.46,0.46,0.461,0.461,0.461,0.462,0.462,0.462,0.463,0.463,0.463,0.463,0.464,0.464,0.464,0.465,0.465,0.465,0.465,0.465,0.466,0.466,0.466,0.466,0.467,0.467,0.467,0.468,0.468,0.468,0.468,0.468,0.469,0.469,0.469,0.469,0.469,0.469,0.469,0.469,0.47,0.47,0.47,0.47,0.471,0.471,0.471,0.472,0.472,0.472,0.473,0.473,0.473,0.473,0.474,0.474,0.474,0.475,0.475,0.476
0,0,0,0,0,0,0,0,0,0,0,0,0,0,0,0,0,0,0,0,0,0,0,0,0,0,0,0,0,0,0,0,0,0,0,0,0,0,0,0,0,0,0,0,0,0,0,0,0,0.406,0.407,0.406,0.406,0.406,0.406,0.406,0.406,0.406,0.406,0.406,0.406,0.406,0.406,0.406,0.406,0.406,0.407,0.407,0.407,0.407,0.407,0.408,0.409,0.409,0.409,0.41,0.41,0.41,0.41,0.41,0.41,0.41,0.409,0.408,0.407,0.407,0.406,0.404,0.402,0.401,0.399,0.397,0.395,0.392,0.389,0.388,0.386,0.384,0.383,0.383,0.382,0.382,0.382,0.381,0.381,0.381,0.381,0.381,0.382,0.382,0.382,0.382,0.382,0.382,0.383,0.383,0.384,0.384,0.384,0.384,0.385,0.385,0.385,0.385,0.385,0.385,0.385,0.385,0.385,0.386,0.386,0.386,0.386,0.386,0.387,0.386,0.387,0.387,0.387,0.388,0.388,0.388,0.389,0.389,0.389,0.389,0.389,0.389,0.389,0.389,0.39,0.39,0.39,0.39,0.39,0.39,0.39,0.39,0.39,0.391,0.391,0.391,0.392,0.392,0.392,0.393,0.393,0.393,0.393,0.393,0.393,0.393,0.393,0.393,0.394,0.394,0.394,0.394,0.394,0.395,0.396,0.396,0.397,0.398,0.398,0.398,0.399,0.399,0.398,0.398,0.398,0.398,0.398,0.398,0.398,0.398,0.398,0.398,0.398,0.398,0.399,0.399,0.399,0.399,0.399,0.399,0.399,0.399,0.399,0.4,0.4,0.4,0.4,0.4,0.4,0.4,0.4,0.401,0.401,0.401,0.401,0.402,0.402,0.403,0.403,0.403,0.404,0.404,0.404,0.404,0.404,0.404,0.405,0.405,0.405,0.406,0.406,0.406,0.406,0.407,0.407,0.407,0.407,0.407,0.407,0.407,0.407,0.407,0.408,0.408,0.408,0.408,0.409,0.409,0.409,0.409,0.41,0.41,0.411,0.411,0.411,0.411,0.412,0.412,0.412,0.412,0.412,0.412,0.412,0.412,0.413,0.413,0.413,0.414,0.414,0.414,0.415,0.415,0.415,0.415,0.415,0.415,0.415,0.415,0.415,0.416,0.416,0.416,0.417,0.417,0.417,0.417,0.417,0.417,0.417,0.417,0.417,0.417,0.417,0.417,0.417,0.418,0.418,0.418,0.418,0.418,0.419,0.419,0.419,0.42,0.42,0.42,0.42,0.421,0.421,0.421,0.422,0.422,0.422,0.422,0.423,0.423,0.423,0.423,0.423,0.423,0.423,0.423,0.423,0.423,0.423,0.423,0.423,0.424,0.424,0.424,0.425,0.425,0.426,0.426,0.427,0.427,0.428,0.428,0.428,0.428,0.428,0.428,0.428,0.428,0.429,0.429,0.429,0.429,0.429,0.43,0.43,0.43,0.431,0.431,0.431,0.431,0.431,0.431,0.431,0.432,0.432,0.432,0.433,0.434,0.434,0.435,0.436,0.436,0.438,0.44,0.443,0.446,0.449,0.452,0.456,0.461,0.465,0,0.471,0.473,0.475,0.475,0.476,0.477,0.477,0.477,0.477,0.477,0.478,0.478,0.477,0.477,0.477,0.476,0.475,0.473,0.47,0.468,0.466,0.463,0.46,0.457,0.455,0.454,0.452,0.452,0.451,0.45,0.45,0.449,0.448,0.448,0.447,0.447,0.446,0.446,0.446,0.445,0.445,0.445,0.445,0.444,0.444,0.444,0.444,0.444,0.444,0.444,0.444,0.444,0.444,0.445,0.445,0.445,0.445,0.445,0.445,0.446,0.446,0.446,0.446,0.446,0.447,0.447,0.447,0.447,0.448,0.448,0.448,0.449,0.449,0.449,0.45,0.45,0.45,0.45,0.451,0.451,0.451,0.451,0.452,0.452,0.452,0.452,0.453,0.453,0.453,0.454,0.454,0.454,0.454,0.455,0.455,0.456,0.456,0.456,0.457,0.457,0.457,0.458,0.458,0.458,0.459,0.46,0.46,0.46,0.461,0.461,0.461,0.462,0.462,0.462,0.463,0.463,0.463,0.464,0.464,0.464,0.464,0.464,0.465,0.465,0.465,0.465,0.465,0.466,0.466,0.466,0.466,0.467,0.467,0.467,0.467,0.468,0.468,0.468,0.468,0.468,0.468,0.468,0.468,0.469,0.469,0.469,0.469,0.47,0.47,0.47,0.471,0.471,0.471,0.471,0.472,0.472,0.472,0.473,0.473,0.474,0.474,0.474,0.475
0,0,0,0,0,0,0,0,0,0,0,0,0,0,0,0,0,0,0,0,0,0,0,0,0,0,0,0,0,0,0,0,0,0,0,0,0,0,0,0,0,0,0,0,0,0,0,0,0,0,0.406,0.406,0.405,0.406,0.406,0.406,0.406,0.406,0.406,0.406,0.406,0.406,0.406,0.406,0.406,0.406,0.406,0.406,0.407,0.407,0.407,0.407,0.408,0.408,0.409,0.409,0.409,0.409,0.41,0.41,0.41,0.409,0.409,0.408,0.407,0.406,0.406,0.404,0.403,0.402,0.4,0.398,0.396,0.393,0.391,0.39,0.387,0.385,0.384,0.383,0.382,0.381,0.381,0.381,0.381,0.381,0.381,0.381,0.381,0.381,0.381,0.382,0.381,0.382,0.382,0.383,0.383,0.383,0.384,0.384,0.384,0.384,0.384,0.384,0.384,0.385,0.385,0.385,0.385,0.385,0.385,0.385,0.385,0.386,0.386,0.386,0.386,0.386,0.387,0.387,0.387,0.388,0.388,0.388,0.388,0.388,0.388,0.388,0.389,0.389,0.389,0.389,0.389,0.389,0.389,0.389,0.39,0.39,0.39,0.39,0.39,0.391,0.391,0.391,0.392,0.392,0.392,0.392,0.393,0.393,0.392,0.393,0.393,0.393,0.393,0.393,0.393,0.393,0.394,0.394,0.395,0.396,0.396,0.397,0.397,0.398,0.398,0.398,0.398,0.398,0.398,0.398,0.398,0.398,0.397,0.397,0.397,0.397,0.398,0.398,0.398,0.398,0.398,0.398,0.398,0.399,0.399,0.399,0.399,0.399,0.399,0.399,0.399,0.399,0.399,0.399,0.4,0.4,0.4,0.401,0.401,0.401,0.402,0.402,0.403,0.403,0.403,0.403,0.403,0.403,0.404,0.404,0.404,0.404,0.405,0.405,0.405,0.406,0.406,0.406,0.406,0.406,0.406,0.407,0.407,0.407,0.407,0.407,0.407,0.407,0.407,0.407,0.408,0.408,0.408,0.409,0.409,0.409,0.41,0.41,0.41,0.41,0.411,0.411,0.411,0.411,0.411,0.411,0.411,0.412,0.412,0.412,0.413,0.413,0.413,0.414,0.414,0.414,0.414,0.414,0.414,0.415,0.415,0.415,0.415,0.415,0.415,0.416,0.416,0.416,0.416,0.416,0.416,0.416,0.417,0.417,0.417,0.417,0.417,0.417,0.417,0.417,0.417,0.417,0.417,0.417,0.418,0.418,0.419,0.419,0.419,0.419,0.42,0.42,0.421,0.421,0.421,0.421,0.421,0.421,0.422,0.422,0.422,0.422,0.422,0.422,0.422,0.422,0.422,0.422,0.422,0.422,0.423,0.423,0.423,0.424,0.424,0.425,0.425,0.426,0.426,0.426,0.427,0.427,0.427,0.427,0.427,0.428,0.428,0.428,0.428,0.428,0.428,0.429,0.429,0.429,0.429,0.43,0.43,0.43,0.43,0.43,0.43,0.431,0.431,0.431,0.431,0.431,0.432,0.432,0.433,0.434,0.435,0.437,0.439,0.441,0.444,0.447,0.451,0.454,0.457,0.462,0.466,0.469,0.471,0.473,0.475,0.475,0.475,0.476,0.476,0.477,0.477,0.477,0.477,0.477,0.477,0.477,0.476,0.475,0.474,0.472,0.47,0.468,0.466,0.463,0.46,0.457,0.455,0.453,0.452,0.451,0.451,0.45,0.449,0.448,0.448,0.447,0.447,0.446,0.446,0.446,0.445,0.445,0.445,0.444,0.444,0.444,0.444,0.443,0.443,0.443,0.443,0.443,0.443,0.444,0.444,0.444,0.444,0.444,0.444,0.444,0.444,0.445,0.445,0.445,0.445,0.446,0.446,0.446,0.446,0.447,0.447,0.447,0.448,0.448,0.448,0.448,0.449,0.449,0.449,0.45,0.45,0.45,0.45,0.45,0.451,0.451,0.451,0.451,0.452,0.452,0.452,0.453,0.453,0.453,0.454,0.454,0.454,0.455,0.455,0.455,0.456,0.456,0.456,0.457,0.457,0.457,0.458,0.458,0.459,0.459,0.46,0.46,0.461,0.461,0.461,0.461,0.462,0.462,0.462,0.463,0.463,0.463,0.463,0.463,0.464,0.464,0.464,0.464,0.465,0.465,0.465,0.465,0.466,0.466,0.466,0.466,0.466,0.466,0.466,0.467,0.467,0.467,0.467,0.467,0.468,0.468,0.468,0.468,0.469,0.469,0.469,0.469,0.47,0.47,0.47,0.47,0.471,0.471,0.471,0.472,0.472,0.473,0.473,0.474,0.474
0,0,0,0,0,0,0,0,0,0,0,0,0,0,0,0,0,0,0,0,0,0,0,0,0,0,0,0,0,0,0,0,0,0,0,0,0,0,0,0,0,0,0,0,0,0,0,0,0,0,0.405,0.405,0.405,0.405,0.405,0.405,0.404,0.404,0.405,0.405,0.405,0.405,0.405,0.405,0.405,0.405,0.406,0.406,0.406,0.406,0.406,0.407,0.407,0.408,0.408,0.408,0.409,0.409,0.409,0.409,0.409,0.409,0.408,0.407,0.407,0.406,0.405,0.404,0.403,0.402,0.401,0.399,0.397,0.395,0.393,0.391,0,0.386,0.385,0.383,0.382,0.382,0.381,0.38,0.38,0.38,0.38,0.38,0.38,0.38,0.381,0.381,0.381,0.381,0.382,0.382,0.382,0.383,0.383,0.383,0.383,0.384,0.384,0.384,0.384,0.384,0.384,0.384,0.384,0.385,0.385,0.385,0.385,0.385,0.385,0.385,0.385,0.385,0.386,0.386,0.386,0.387,0.387,0.387,0.387,0.387,0.388,0.388,0.388,0.388,0.388,0.388,0.389,0.389,0.389,0.389,0.389,0.389,0.389,0.389,0.39,0.39,0.39,0.39,0.391,0.391,0.391,0.392,0.392,0.392,0.392,0.392,0.392,0.392,0.392,0.392,0.393,0.393,0.393,0.394,0.394,0.395,0.395,0.396,0.397,0.397,0.397,0.397,0.397,0.397,0.397,0.397,0.397,0.397,0.397,0.397,0.397,0.397,0.397,0.397,0.397,0.397,0.398,0.398,0.398,0.398,0.398,0.398,0.398,0.398,0.398,0.398,0.399,0.399,0.398,0.399,0.399,0.399,0.399,0.4,0.4,0.401,0.401,0.402,0.402,0.402,0.403,0.403,0.403,0.403,0.403,0.403,0.403,0.404,0.404,0.404,0.405,0.405,0.405,0.406,0.406,0.406,0.406,0.406,0.406,0.406,0.406,0.406,0.406,0.406,0.407,0.407,0.407,0.407,0.407,0.408,0.408,0.409,0.409,0.409,0.41,0.41,0.41,0.41,0.41,0.41,0.41,0.41,0.411,0.411,0.412,0.412,0.412,0.412,0.413,0.413,0.413,0.413,0.413,0.413,0.414,0.414,0.414,0.414,0.414,0.415,0.415,0.415,0.415,0.415,0.415,0.416,0.416,0.416,0.416,0.416,0.416,0.416,0.416,0.416,0.417,0.417,0.417,0.417,0.417,0.417,0.417,0.418,0.418,0.418,0.419,0.419,0.419,0.419,0.42,0.42,0.42,0.42,0.421,0.421,0.421,0.421,0.421,0.421,0.421,0.421,0.421,0.421,0.421,0.421,0.421,0.421,0.422,0.422,0.423,0.423,0.424,0.424,0.425,0.425,0.425,0.425,0.426,0.426,0.426,0.427,0.427,0.427,0.427,0.427,0.428,0.428,0.428,0.428,0.428,0.428,0.428,0.429,0.429,0.429,0.429,0.429,0.43,0.43,0.43,0.43,0.43,0.431,0.431,0.432,0.433,0.434,0.435,0.437,0.439,0.442,0.445,0,0,0.455,0.459,0.463,0.467,0.469,0.471,0.472,0.473,0.474,0.474,0.475,0.475,0.476,0.476,0.476,0.476,0.476,0.476,0.475,0.475,0.474,0.474,0.472,0.47,0.468,0.465,0.463,0.46,0.457,0.455,0.453,0.452,0.451,0.45,0.449,0.449,0.448,0.447,0.447,0.446,0.446,0.445,0.445,0.445,0.444,0.444,0.443,0.443,0.443,0.443,0.443,0.442,0.442,0.442,0.442,0.442,0.443,0.443,0.443,0.443,0.443,0.443,0.443,0.444,0.444,0.444,0.444,0.444,0.445,0.445,0.445,0.446,0.446,0.446,0.446,0.447,0.447,0.447,0.448,0.448,0.448,0.448,0.449,0.449,0.449,0.449,0.449,0.45,0.45,0.45,0.45,0.451,0.451,0.451,0.452,0.452,0.452,0.453,0.453,0.454,0.454,0.454,0.455,0.455,0.455,0.456,0.456,0.456,0.456,0.457,0.457,0.458,0.458,0.458,0.459,0.459,0.46,0.46,0.46,0.461,0.461,0.461,0.462,0.462,0.462,0.462,0.463,0.463,0.463,0.463,0.464,0.464,0.464,0.464,0.465,0.465,0.465,0.465,0.465,0.465,0.465,0.466,0.466,0.466,0.466,0.466,0.466,0.466,0.467,0.467,0.467,0.468,0.468,0.468,0.469,0.469,0.469,0.469,0.47,0.47,0.47,0.47,0.471,0.471,0.472,0.472,0.473,0.473
0,0,0,0,0,0,0,0,0,0,0,0,0,0,0,0,0,0,0,0,0,0,0,0,0,0,0,0,0,0,0,0,0,0,0,0,0,0,0,0,0,0,0,0,0,0,0,0,0,0,0.404,0.404,0.404,0.404,0.404,0.404,0.404,0.404,0.404,0.404,0.404,0.404,0.404,0,0,0,0,0,0.406,0.406,0.406,0.407,0.407,0.407,0.407,0.408,0.408,0.408,0.408,0.408,0.408,0.408,0.407,0.407,0.407,0.406,0.405,0.404,0.404,0.403,0.402,0.4,0.398,0.396,0.394,0.391,0.39,0.387,0.385,0.384,0.383,0.382,0.381,0.38,0.38,0.38,0.38,0.38,0.38,0.38,0.38,0.38,0.38,0.381,0.381,0.381,0.382,0.382,0.382,0.383,0.383,0.383,0.383,0.383,0.383,0.383,0.384,0.384,0.384,0.384,0.384,0.384,0.384,0.384,0.385,0.384,0.385,0.385,0.385,0.385,0.386,0.386,0.386,0.386,0.387,0.387,0.387,0.387,0.387,0.387,0.388,0.388,0.388,0.388,0.388,0.388,0.388,0.389,0.389,0.389,0.389,0.389,0.389,0.39,0.39,0.39,0.391,0.391,0.391,0.391,0.391,0.391,0.391,0.391,0.392,0.392,0.392,0.392,0.393,0.393,0.394,0.394,0.395,0.395,0.396,0.396,0.396,0.397,0.396,0.396,0.396,0.396,0.396,0.396,0.396,0.396,0.396,0.396,0.396,0.397,0.397,0.397,0.397,0.397,0.397,0.397,0.397,0.397,0.397,0.398,0.398,0.398,0.398,0.398,0.398,0.398,0.398,0.399,0.399,0.399,0.399,0.4,0.401,0.401,0.401,0.402,0.402,0.402,0.402,0.402,0.402,0.403,0.403,0.403,0.403,0.404,0.404,0.404,0.404,0.405,0.405,0.405,0.405,0.405,0.405,0.405,0.405,0.405,0.405,0.406,0.406,0.406,0.406,0.407,0.407,0.407,0.407,0.408,0.408,0.409,0.409,0.409,0.409,0.409,0.409,0.409,0.409,0.41,0.41,0.41,0.411,0.411,0.411,0.412,0.412,0.412,0.412,0.412,0.413,0.413,0.413,0.413,0.413,0.413,0.414,0.414,0.414,0.414,0.414,0.415,0.415,0.415,0.415,0.415,0.415,0.415,0.415,0.415,0.416,0.416,0.416,0.416,0.416,0.416,0.416,0.416,0.417,0.417,0.417,0.418,0.418,0.418,0.418,0.419,0.419,0.419,0.419,0.42,0.42,0.42,0.42,0.421,0.421,0.42,0.42,0.42,0.42,0.421,0.42,0.42,0.42,0.421,0.421,0.421,0.422,0.422,0.423,0.423,0.424,0.424,0.425,0.425,0.425,0.425,0.426,0.426,0.426,0.426,0.426,0.427,0.427,0.427,0.427,0.427,0.428,0.428,0.428,0.428,0.428,0.428,0.428,0.428,0.429,0.429,0.429,0.429,0.429,0.43,0.43,0.431,0.432,0.433,0.435,0.437,0.44,0.443,0.447,0.451,0.454,0,0.461,0.464,0.467,0.469,0.47,0.472,0.473,0.474,0.474,0.474,0.474,0.474,0.475,0.475,0.475,0.475,0.475,0.475,0.474,0.474,0.473,0.471,0.47,0.468,0.465,0.463,0.46,0.458,0.455,0.453,0.452,0.451,0.45,0.449,0.448,0.447,0.447,0.446,0.446,0.445,0.445,0.444,0.444,0.444,0.443,0.443,0.442,0.442,0.442,0.442,0.441,0.441,0.441,0.441,0.441,0.442,0.442,0.442,0.442,0.442,0.443,0.443,0.443,0.443,0.443,0.444,0.444,0.444,0.444,0.445,0.445,0.445,0.445,0.446,0.446,0.446,0.446,0.447,0.447,0.447,0.447,0.448,0.448,0.448,0.448,0.449,0.449,0.449,0.449,0.449,0.45,0.45,0.45,0.451,0.451,0.452,0.452,0.452,0.453,0.453,0.453,0.454,0.454,0.454,0.455,0.455,0.455,0.456,0.456,0.456,0.457,0.457,0.457,0.458,0.458,0.458,0.459,0.459,0.46,0.46,0.46,0.461,0.461,0.461,0.461,0.462,0.462,0.462,0.463,0.463,0.463,0.463,0.463,0.464,0.464,0.464,0.464,0.464,0.465,0.465,0.465,0.465,0.465,0.465,0.465,0.465,0.466,0.466,0.466,0.466,0.467,0.467,0.468,0.468,0.468,0.468,0.469,0.469,0.469,0.469,0.47,0.47,0.47,0.471,0.471,0.472,0.473
0,0,0,0,0,0,0,0,0,0,0,0,0,0,0,0,0,0,0,0,0,0,0,0,0,0,0,0,0,0,0,0,0,0,0,0,0,0,0,0,0,0,0,0,0,0,0,0.403,0.403,0.402,0.403,0.403,0.403,0.403,0.403,0.403,0.403,0.403,0.403,0.403,0.403,0.403,0.403,0.403,0,0,0.404,0.404,0.405,0.405,0.405,0.406,0.406,0.407,0.407,0.407,0.407,0.407,0.407,0.408,0.407,0.407,0.407,0.407,0.406,0.406,0.406,0.405,0.404,0.403,0.403,0.402,0.4,0.398,0.395,0.393,0.39,0.388,0,0.384,0.383,0.382,0.381,0.38,0.38,0.379,0.379,0.379,0.379,0.379,0.38,0.38,0.38,0.38,0.38,0.381,0.381,0.381,0.382,0.382,0.382,0.382,0.382,0.383,0.383,0.383,0.383,0.383,0.383,0.383,0.383,0.383,0.384,0.384,0.384,0.384,0.384,0.384,0.385,0.385,0.385,0.385,0.385,0.385,0.386,0.386,0.386,0.386,0.387,0.387,0.387,0.387,0.387,0.388,0.388,0.388,0.388,0.388,0.388,0.388,0.388,0.389,0.389,0.389,0.389,0.39,0.39,0.39,0.39,0.39,0.39,0.39,0.391,0.391,0.391,0.391,0.391,0.391,0.392,0.392,0.393,0.393,0.394,0.394,0.395,0.395,0.395,0.395,0.395,0.395,0.395,0.395,0.395,0.395,0.395,0.395,0.395,0.396,0.396,0.396,0.396,0.396,0.396,0.397,0.397,0.397,0.397,0.397,0.397,0.397,0.397,0.397,0.397,0.398,0.398,0.398,0.398,0.398,0.398,0.399,0.399,0.399,0.4,0.4,0.401,0.401,0.401,0.401,0.401,0.402,0.402,0.402,0.402,0.402,0.403,0.403,0.403,0.404,0.404,0.404,0.404,0.404,0.404,0.404,0.404,0.405,0.405,0.404,0.405,0.405,0.405,0.406,0.406,0.406,0.406,0.407,0.407,0.407,0.407,0.408,0.408,0.408,0.409,0.409,0.409,0.409,0.409,0.409,0.409,0.41,0.41,0.41,0.411,0.411,0.411,0.412,0.412,0.412,0.412,0.412,0.412,0.412,0.412,0.413,0.413,0.413,0.413,0.413,0.413,0.414,0.414,0.414,0.414,0.415,0.415,0.415,0.415,0.415,0.415,0.415,0.415,0.415,0.415,0.416,0.416,0.416,0.416,0.417,0.417,0.417,0.417,0.417,0.417,0.418,0.418,0.419,0.419,0.419,0.419,0.419,0.419,0.42,0.42,0.42,0.419,0.419,0.419,0.42,0.42,0.42,0.42,0.42,0.421,0.421,0.421,0.422,0.422,0.423,0.423,0.423,0.424,0.424,0.424,0.425,0.425,0.425,0.425,0.425,0.426,0.426,0.426,0.426,0.426,0.427,0.427,0.427,0.427,0.427,0.427,0.427,0.428,0.428,0.428,0.428,0.428,0.428,0.429,0.429,0.43,0.43,0.431,0.433,0.434,0.437,0,0.445,0.449,0.453,0.456,0.459,0.462,0.465,0.467,0.469,0.47,0.471,0.472,0.473,0.473,0.473,0.473,0.473,0.474,0.474,0.474,0.474,0.474,0.474,0.474,0.473,0.472,0.471,0.47,0.468,0.465,0.463,0,0.457,0.455,0.453,0.451,0.45,0.449,0.448,0.448,0.447,0.446,0.446,0.445,0.445,0.444,0.444,0.443,0.443,0.442,0.442,0.442,0.441,0.441,0.441,0.44,0.44,0.44,0.44,0.441,0.441,0.441,0.441,0.442,0.442,0.442,0.442,0.442,0.443,0.443,0.443,0.443,0.443,0.444,0.444,0.444,0.444,0.445,0.445,0.445,0.445,0.446,0.446,0.446,0.446,0.447,0.447,0.447,0.447,0.447,0.447,0.448,0.448,0.448,0.448,0.449,0.449,0.449,0.45,0.45,0.451,0.451,0.451,0.452,0.452,0.453,0.453,0.453,0.453,0.454,0.454,0.454,0.455,0.455,0.455,0.456,0.456,0.456,0.457,0.457,0.457,0.458,0.458,0.458,0.458,0.459,0.46,0.46,0.46,0.46,0.461,0.461,0.461,0.462,0.462,0.462,0.462,0.463,0.463,0.463,0.463,0.463,0.464,0.464,0.464,0.464,0.464,0.464,0.464,0.465,0.465,0.465,0.465,0.465,0.466,0.466,0.466,0.466,0.467,0.467,0.468,0.468,0.468,0.469,0.469,0.469,0.469,0.47,0.47,0.471,0.471,0.472
0,0,0,0,0,0,0,0,0,0,0,0,0,0,0,0,0,0,0,0,0,0,0,0,0,0,0,0,0,0,0,0,0,0,0,0,0,0,0,0,0,0,0,0,0,0,0,0.402,0.402,0.402,0.402,0.402,0.402,0.402,0.402,0.402,0.402,0.402,0.402,0.402,0.402,0.403,0.402,0.403,0.403,0.403,0.404,0.404,0.404,0.405,0.405,0.406,0.406,0.406,0.406,0.406,0.407,0.407,0.407,0.407,0.407,0.407,0.407,0.406,0.406,0.406,0.406,0.405,0.405,0.404,0.403,0.403,0.401,0.399,0.396,0.394,0.391,0.388,0.386,0,0.383,0.382,0.381,0.38,0.379,0.379,0.379,0.379,0.379,0.379,0.379,0.379,0.379,0.38,0.38,0.38,0.38,0.381,0.381,0.381,0.381,0.382,0.382,0.382,0.382,0.382,0.382,0.383,0.383,0.383,0.383,0.383,0.383,0.383,0.383,0.383,0.383,0.384,0.384,0.384,0.384,0.385,0.385,0.385,0.385,0.385,0.385,0.386,0.386,0.386,0.386,0.386,0.387,0.387,0.387,0.387,0.387,0.387,0.388,0.388,0.388,0.388,0.388,0.389,0.389,0.389,0.389,0.389,0.39,0.39,0.39,0.39,0.39,0.39,0.39,0.39,0.391,0.391,0.391,0.392,0.392,0.392,0.393,0.393,0.394,0.394,0.394,0.394,0.394,0.394,0.394,0.394,0.394,0.394,0.394,0.394,0.395,0.395,0.395,0.395,0.395,0.395,0.396,0.396,0.396,0.396,0.396,0.396,0.396,0.396,0.397,0.397,0.397,0.397,0.397,0.397,0.398,0.398,0.398,0.398,0.399,0.399,0.399,0.4,0.4,0.4,0.4,0.401,0.401,0.401,0.401,0.402,0.402,0.402,0.402,0.402,0.402,0.403,0.403,0.403,0.403,0.403,0.404,0.404,0.404,0.404,0.404,0.404,0.404,0.404,0.405,0.405,0.406,0.406,0.406,0.406,0.406,0.407,0.407,0.407,0.407,0.407,0.408,0.408,0.408,0.408,0.408,0.408,0.409,0.409,0.409,0.41,0.41,0.41,0.41,0.411,0.41,0.411,0.411,0.411,0.412,0.412,0.412,0.412,0.412,0.412,0.413,0.413,0.413,0.413,0.413,0.413,0.413,0.414,0.414,0.414,0.414,0.414,0.414,0.415,0.415,0.415,0.415,0.415,0.415,0.415,0.416,0.416,0.416,0.416,0.416,0.417,0.417,0.417,0.417,0.418,0.418,0.418,0.418,0.419,0.419,0.419,0.419,0.419,0.419,0.419,0.419,0.419,0.419,0.419,0.419,0.419,0.42,0.42,0.421,0.421,0.421,0.422,0.422,0.423,0.423,0.423,0.423,0.424,0.424,0.424,0.424,0.425,0.425,0.425,0.425,0.426,0.426,0.426,0.426,0.426,0.426,0.426,0.426,0.426,0.427,0.427,0.427,0.427,0.427,0.428,0.428,0.428,0.429,0.43,0.431,0.432,0.434,0.437,0,0.446,0.45,0.454,0.458,0.461,0.463,0.465,0.467,0.468,0.469,0.47,0.471,0.471,0.472,0.472,0.472,0.473,0.472,0.473,0.473,0.473,0.473,0.473,0.473,0.472,0.472,0.471,0.47,0.468,0.466,0.463,0,0.458,0.455,0.453,0.451,0.45,0.449,0.448,0.447,0.446,0.446,0.445,0.445,0.444,0.444,0.443,0.443,0.442,0.442,0.441,0.441,0.44,0.44,0.439,0.439,0.439,0.439,0.439,0.44,0.44,0.44,0.441,0.441,0.441,0.441,0.442,0.442,0.442,0.442,0.442,0.442,0.443,0.443,0.443,0.443,0.444,0.444,0.444,0.445,0.445,0.445,0.445,0.446,0.446,0.446,0.446,0.446,0.446,0.446,0.447,0.447,0.447,0.447,0.447,0.448,0.448,0.448,0.449,0.449,0.449,0.45,0.45,0.451,0.451,0.452,0.452,0.452,0.453,0.453,0.453,0.453,0.454,0.454,0.454,0.455,0.455,0.455,0.456,0.456,0.456,0.457,0.457,0.457,0.457,0.458,0.458,0.458,0.459,0.459,0.46,0.46,0.46,0.461,0.461,0.461,0.462,0.462,0.462,0.462,0.462,0.463,0.463,0.463,0.463,0.463,0.463,0.463,0.464,0.464,0.464,0.464,0.464,0.465,0.465,0.465,0.466,0.466,0.466,0.466,0.467,0.467,0.468,0.468,0.468,0.468,0.469,0.469,0.469,0.47,0.47,0.471
0,0,0,0,0,0,0,0,0,0,0,0,0,0,0,0,0,0,0,0,0,0,0,0,0,0,0,0,0,0,0,0,0,0,0,0,0,0,0,0,0,0,0,0,0,0,0.401,0.401,0.401,0.401,0.401,0.401,0.401,0.401,0.401,0.401,0.401,0.401,0.401,0.401,0.402,0.402,0.402,0.402,0.402,0.403,0.403,0.403,0.404,0.404,0.404,0.405,0.405,0.406,0.406,0.406,0.406,0.406,0.406,0.406,0.406,0.406,0.406,0.406,0.406,0.406,0.406,0.405,0.405,0.404,0.404,0,0,0,0.397,0.394,0.392,0.389,0.387,0.385,0,0.382,0.38,0.38,0.379,0.378,0.378,0.378,0.378,0.378,0.379,0.379,0.379,0.379,0.379,0.38,0.38,0.38,0.38,0.38,0.381,0.381,0.381,0.381,0.381,0.382,0.382,0.382,0.382,0.382,0.382,0.382,0.382,0.382,0.383,0.383,0.383,0.383,0.383,0.383,0.384,0.384,0.384,0.384,0.385,0.385,0.385,0.385,0.385,0.385,0.385,0.386,0.386,0.386,0.386,0.387,0.387,0.387,0.387,0.387,0.387,0.388,0.388,0.388,0.388,0.388,0.388,0.389,0.389,0.389,0.389,0.389,0.389,0.389,0.39,0.39,0.39,0.39,0.39,0.391,0.391,0.391,0.392,0.393,0.393,0.393,0.393,0.393,0.393,0.393,0.393,0.393,0.393,0.393,0.394,0.394,0.394,0.394,0.394,0.394,0.395,0.395,0.395,0.395,0.395,0.395,0.396,0.396,0.396,0.396,0.396,0.396,0.396,0.397,0.397,0.397,0.397,0.398,0.398,0.398,0.398,0.399,0.399,0.399,0.399,0.399,0.4,0.4,0.4,0.4,0.401,0.401,0.401,0.401,0.401,0.402,0.402,0.402,0.402,0.403,0.403,0.403,0.403,0.403,0.403,0.403,0.403,0.403,0.403,0.404,0,0.405,0.405,0.405,0.406,0.406,0.406,0.406,0.407,0.407,0.407,0.407,0.407,0.407,0.407,0.407,0.407,0.407,0.408,0.408,0.409,0.409,0.409,0.409,0.41,0.41,0.41,0.41,0.41,0.411,0.411,0.411,0.411,0.412,0.412,0.412,0.412,0.412,0.412,0.412,0.412,0.413,0.413,0.413,0.413,0.413,0.414,0.414,0.414,0.414,0.414,0.414,0.415,0.415,0.415,0.415,0.415,0.415,0.416,0.416,0.416,0.416,0.416,0.417,0.417,0.417,0.417,0.417,0.417,0.418,0.418,0.418,0.418,0.418,0.418,0.419,0.419,0.419,0.419,0.419,0.419,0.419,0.419,0.42,0.42,0.421,0.421,0.421,0.421,0.422,0.422,0.422,0.422,0.423,0.423,0.423,0.423,0.424,0.424,0.424,0.425,0.425,0.425,0.425,0.425,0.425,0.425,0.426,0.426,0.426,0.426,0.426,0.426,0.426,0.427,0.427,0.427,0.428,0.428,0.429,0.43,0.431,0.434,0,0.442,0.447,0.453,0.457,0.46,0.462,0.464,0.466,0.466,0.468,0.469,0.469,0.47,0.471,0.471,0.471,0.471,0.471,0.471,0.471,0.471,0.471,0.472,0.472,0.472,0.471,0.471,0.471,0.47,0.468,0.466,0.463,0.461,0.458,0.456,0.453,0.451,0.449,0.448,0.447,0.447,0.446,0.446,0.445,0.444,0.444,0.443,0.443,0.442,0.441,0.441,0.44,0.44,0.439,0.439,0.439,0.439,0.439,0.439,0.439,0.439,0.439,0.439,0.439,0.44,0.44,0.44,0.441,0.441,0.441,0.441,0.441,0.441,0.442,0.442,0.442,0.442,0.443,0.443,0.443,0.444,0.444,0.444,0.445,0.445,0.445,0.445,0.445,0.446,0.446,0.446,0.446,0.446,0.446,0.446,0.447,0.447,0.447,0.447,0.448,0.448,0.448,0.449,0.449,0.45,0.45,0.451,0.451,0.451,0.452,0.452,0.452,0.453,0.453,0.453,0.453,0.454,0.454,0.454,0.455,0.455,0.455,0.456,0.456,0.456,0.456,0.457,0.457,0.458,0.458,0.458,0.459,0.459,0.46,0.46,0.46,0.46,0.461,0.461,0.461,0.461,0.461,0.462,0.462,0.462,0.462,0.462,0.462,0.463,0.463,0.463,0.463,0.463,0.464,0.464,0.464,0.465,0.465,0.465,0.466,0.466,0.466,0.466,0.467,0.467,0.468,0.468,0.468,0.468,0.469,0.469,0.47,0.47
0,0,0,0,0,0,0,0,0,0,0,0,0,0,0,0,0,0,0,0,0,0,0,0,0,0,0,0,0,0,0,0,0,0,0,0,0,0,0,0,0,0,0,0,0,0.401,0.401,0.401,0.401,0.401,0.401,0.401,0.401,0.401,0.401,0.401,0.401,0.401,0.401,0.4,0.401,0.401,0.401,0.401,0.402,0.402,0.402,0.403,0.403,0.404,0.404,0.404,0.404,0.405,0.405,0.405,0.405,0.406,0.406,0.406,0.406,0.406,0.406,0.406,0.406,0.406,0.405,0.405,0.405,0.404,0.404,0,0,0,0,0.395,0.392,0.389,0.387,0.385,0,0.382,0.38,0.379,0.378,0.378,0.378,0.378,0.378,0.378,0.378,0.378,0.378,0.379,0.379,0.379,0.379,0.38,0.38,0.38,0.38,0.38,0.381,0.381,0.381,0.381,0.381,0.381,0.382,0.382,0.382,0.382,0.382,0.382,0.382,0.382,0.382,0.382,0.382,0.383,0.383,0.383,0.384,0.384,0.384,0.384,0.384,0.385,0.385,0.385,0.385,0.385,0.386,0.386,0.386,0.386,0.386,0.386,0.387,0.387,0.387,0.387,0.387,0.387,0.388,0.388,0.388,0.388,0.388,0.388,0.389,0.389,0.389,0.389,0.389,0.389,0.389,0.389,0.39,0.39,0.39,0.391,0.391,0.392,0.392,0.392,0.392,0.392,0.392,0.392,0.392,0.393,0.393,0.393,0.393,0.393,0.393,0.394,0.394,0.394,0.394,0.394,0.395,0.395,0.395,0.395,0.395,0.395,0.395,0.396,0.396,0.396,0.396,0.396,0.396,0.397,0.397,0.397,0.397,0.398,0.398,0.398,0.398,0.399,0.399,0.399,0.399,0.399,0.399,0.399,0.4,0.4,0.4,0.4,0.4,0.401,0.401,0.401,0.402,0.402,0.402,0.402,0.402,0.402,0.402,0.403,0.402,0.403,0.403,0.403,0,0.404,0.404,0.404,0.405,0.405,0.405,0.406,0.406,0.406,0.406,0.406,0.406,0.406,0.406,0.406,0.407,0.407,0.407,0.407,0.408,0.408,0.408,0.409,0.409,0.409,0.409,0.409,0.41,0.41,0.41,0.41,0.41,0.411,0.411,0.411,0.411,0.411,0.411,0.412,0.412,0.412,0.412,0.412,0.413,0.413,0.413,0.413,0.413,0.413,0.414,0.414,0.414,0.414,0.414,0.414,0.414,0.415,0.415,0.415,0.415,0.415,0.416,0.416,0.416,0.417,0.417,0.417,0.417,0.417,0.417,0.417,0.418,0.417,0.418,0.418,0.418,0.418,0.418,0.418,0.418,0.419,0.419,0.419,0.419,0.42,0.42,0.421,0.421,0.421,0.421,0.421,0.422,0.422,0.422,0.423,0.423,0.423,0.423,0.424,0.424,0.424,0.424,0.425,0.425,0.425,0.425,0.425,0.425,0.425,0.425,0.425,0.425,0.425,0.426,0.426,0.426,0.427,0.428,0.428,0.429,0.431,0.433,0.437,0.443,0.449,0.454,0.458,0.461,0.462,0.464,0.465,0.466,0.467,0.468,0.468,0.469,0.469,0.47,0.47,0.47,0.47,0.47,0.47,0.47,0.47,0.471,0.471,0.471,0.471,0.471,0.47,0.469,0.468,0.466,0.463,0.461,0,0.456,0.453,0.451,0.449,0.448,0.447,0.446,0.446,0.445,0.444,0.444,0.443,0.443,0.442,0.441,0.441,0.44,0.44,0.439,0.439,0.439,0.438,0.438,0.438,0.438,0.438,0.438,0.438,0.438,0.439,0.439,0.439,0.439,0.44,0.44,0.44,0.44,0.44,0.44,0.441,0.441,0.441,0.442,0.442,0.442,0.443,0.443,0.443,0.444,0.444,0.444,0.444,0.444,0.444,0.445,0.445,0.445,0.445,0.445,0.446,0.446,0.446,0.446,0.446,0.446,0.447,0.447,0.447,0.448,0.448,0.449,0.449,0.45,0.45,0.45,0.451,0.451,0.451,0.452,0.452,0.452,0.453,0.453,0.453,0.454,0.454,0.454,0.455,0.455,0.455,0.455,0.456,0.456,0.457,0.457,0.457,0.458,0.458,0.458,0.459,0.459,0.459,0.459,0.46,0.46,0.46,0.46,0.46,0.461,0.461,0.461,0.461,0.461,0.461,0.462,0.462,0.462,0.462,0.463,0.463,0.463,0.464,0.464,0.464,0.465,0.465,0.465,0.466,0.466,0.466,0.466,0.467,0.467,0.467,0.468,0.468,0.468,0.469,0.469
0,0,0,0,0,0,0,0,0,0,0,0,0,0,0,0,0,0,0,0,0,0,0,0,0,0,0,0,0,0,0,0,0,0,0,0,0,0,0,0,0,0,0,0,0,0.4,0.4,0.4,0.4,0.4,0.4,0.4,0.4,0.4,0.4,0.4,0.4,0.4,0.4,0.4,0.4,0.4,0.401,0.401,0.401,0.402,0.402,0.403,0.403,0.403,0.404,0.404,0.404,0.404,0.405,0.405,0.405,0.405,0.405,0.405,0.405,0.405,0.405,0.405,0.405,0.405,0.405,0.405,0.405,0.404,0.404,0.403,0,0,0,0.394,0.392,0.389,0.387,0.385,0,0.381,0.38,0.379,0.378,0.377,0.377,0.377,0.377,0.377,0.377,0.378,0.378,0.378,0.378,0.378,0.379,0.379,0.379,0.38,0.38,0.38,0.38,0.38,0.38,0.381,0.381,0.381,0.381,0.381,0.381,0.381,0.381,0.381,0.381,0.381,0.381,0.382,0.382,0.382,0.382,0.383,0.383,0.383,0.383,0.384,0.384,0.384,0.384,0.384,0.384,0.385,0.385,0.385,0.385,0.385,0.386,0.386,0.386,0.386,0.386,0.387,0.387,0.387,0.387,0.387,0.387,0.387,0.388,0.388,0.388,0.388,0.388,0.388,0.388,0.389,0.389,0.389,0.389,0.389,0.39,0.39,0.39,0.391,0.391,0.391,0.391,0.391,0.391,0.391,0.392,0.392,0.392,0.392,0.392,0.392,0.393,0.393,0.393,0.393,0.393,0.394,0.394,0.394,0.394,0.394,0.395,0.395,0.395,0.395,0.395,0.395,0.396,0.396,0.396,0.396,0.397,0.397,0.397,0.397,0.397,0.398,0.398,0.398,0.398,0.399,0.399,0.399,0.399,0.399,0.399,0.399,0.399,0.399,0.4,0.4,0.4,0.401,0.401,0.401,0.401,0.401,0.401,0.402,0.402,0.402,0.402,0.402,0.402,0.402,0.403,0.403,0.404,0.404,0.404,0.404,0.405,0.405,0.405,0.405,0.405,0.405,0.405,0.405,0.406,0.406,0.406,0.406,0.406,0.407,0.407,0.407,0.407,0.408,0.408,0.408,0.409,0.409,0.409,0.409,0.409,0.409,0.41,0.41,0.41,0.41,0.41,0.41,0.41,0.411,0.411,0.411,0.411,0.411,0.412,0.412,0.412,0.412,0.412,0.413,0.413,0.413,0.413,0.413,0.413,0.413,0.414,0.414,0.414,0.415,0.415,0.415,0.415,0.415,0.415,0.416,0.416,0.416,0.416,0.416,0.417,0.417,0.417,0.417,0.417,0.417,0.417,0.417,0.418,0.418,0.418,0.418,0.419,0.419,0.419,0.419,0.419,0.42,0.42,0.42,0.421,0.421,0.421,0.421,0.421,0.422,0.422,0.422,0.422,0.423,0.423,0.423,0.423,0.424,0.424,0.424,0.424,0.424,0.424,0.424,0.425,0.425,0.425,0.425,0.425,0.426,0.426,0.427,0.427,0.428,0.429,0.431,0,0,0.445,0,0,0.46,0.462,0.463,0.464,0.465,0.465,0.466,0.467,0.467,0.468,0.468,0.469,0.469,0.469,0.469,0.469,0.469,0.469,0.469,0.47,0.47,0.47,0.47,0.47,0.47,0.469,0.468,0.466,0.463,0.461,0,0.456,0.453,0.451,0.448,0.447,0.446,0.446,0.445,0.444,0.444,0.443,0.443,0.442,0.442,0.441,0.44,0.44,0.439,0.439,0.438,0.438,0.437,0.437,0.437,0.437,0.437,0.437,0.438,0.438,0.438,0.438,0.438,0.439,0.439,0.439,0.439,0.439,0.439,0.439,0.44,0.44,0.44,0.441,0.441,0.441,0.442,0.442,0.442,0.443,0.443,0.443,0.443,0.443,0.444,0.444,0.444,0.444,0.444,0.444,0.445,0.445,0.445,0.445,0.445,0.446,0.446,0.446,0.447,0.447,0.447,0.448,0.448,0.449,0.449,0.449,0.45,0.45,0.45,0.451,0.451,0.451,0.452,0.452,0.452,0.453,0.453,0.453,0.454,0.454,0.454,0.454,0.455,0.455,0.456,0.456,0.456,0.457,0.457,0.457,0.458,0.458,0.458,0.458,0.458,0.458,0.459,0.459,0.459,0.46,0.46,0.46,0.46,0.46,0.46,0.461,0.461,0.461,0.461,0.462,0.462,0.462,0.463,0.463,0.464,0.464,0.464,0.465,0.465,0.465,0.466,0.466,0.466,0.466,0.466,0.467,0.467,0.468,0.468,0.468
0,0,0,0,0,0,0,0,0,0,0,0,0,0,0,0,0,0,0,0,0,0,0,0,0,0,0,0,0,0,0,0,0,0,0,0,0,0,0,0,0,0,0,0,0,0,0.4,0.399,0.399,0.399,0.399,0.399,0.399,0.399,0.399,0.399,0.399,0.399,0.399,0.399,0.4,0.4,0.4,0.401,0.401,0.401,0.402,0.402,0.403,0.403,0.403,0.403,0.404,0.404,0.404,0.404,0.404,0.404,0.404,0.405,0.405,0.405,0.405,0.405,0.405,0.405,0.405,0.404,0.404,0.404,0.403,0.403,0.401,0,0.396,0.393,0.391,0.388,0.386,0.384,0.382,0.381,0.38,0.378,0.378,0.377,0.377,0.377,0.377,0.377,0.377,0.377,0.377,0.378,0.378,0.378,0.378,0.379,0.379,0.379,0.379,0.379,0.38,0.38,0.38,0.38,0.38,0.381,0.381,0.381,0.381,0.381,0.381,0.381,0.381,0.381,0.381,0.381,0.381,0.381,0.382,0.382,0.382,0.382,0.383,0.383,0.384,0.384,0.384,0.384,0.384,0.384,0.385,0.385,0.385,0.385,0.385,0.385,0.385,0.385,0.386,0.386,0.386,0.386,0.386,0.386,0.387,0.387,0.387,0.387,0.387,0.387,0.388,0.388,0.388,0.388,0.388,0.388,0.388,0.389,0.389,0.389,0.389,0.39,0.39,0.39,0.39,0.391,0.391,0.391,0.391,0.391,0.391,0.391,0.391,0.392,0.392,0.392,0.392,0.393,0.393,0.393,0.393,0.394,0.394,0.394,0.394,0.394,0.394,0.395,0.395,0.395,0.395,0.395,0.396,0.396,0.396,0.396,0.397,0.397,0.397,0.397,0.398,0.398,0.398,0.398,0.398,0.398,0.398,0.398,0.398,0.399,0.399,0.399,0.399,0.399,0.399,0.4,0.4,0.4,0.4,0.4,0.401,0.401,0.401,0.401,0.401,0.401,0.401,0.402,0.402,0.402,0.403,0.403,0.403,0.404,0.404,0.404,0.404,0.404,0.405,0.404,0.405,0.405,0.405,0.405,0.405,0.406,0.406,0.406,0.406,0.406,0.407,0.407,0.407,0.407,0.408,0.408,0.408,0.409,0.409,0.409,0.409,0.409,0.409,0.409,0.409,0.41,0.41,0.41,0.41,0.41,0.41,0.41,0.411,0.411,0.411,0.412,0.412,0.412,0.412,0.412,0.412,0.412,0.412,0.413,0.413,0.413,0.413,0.413,0.414,0.414,0.414,0.415,0.415,0.415,0.415,0.415,0.416,0.416,0.416,0.416,0.416,0.416,0.416,0.417,0.417,0.417,0.417,0.417,0.418,0.418,0.418,0.419,0.419,0.419,0.419,0.419,0.419,0.42,0.42,0.42,0.42,0.42,0.421,0.421,0.421,0.421,0.421,0.422,0.422,0.422,0.423,0.423,0.423,0.423,0.423,0.423,0.424,0.424,0.424,0.424,0.424,0.425,0.425,0.425,0.426,0.426,0.427,0.428,0.429,0.432,0,0,0,0,0,0,0.462,0.463,0.463,0.464,0.465,0.465,0.466,0.466,0.467,0.467,0.467,0.468,0.468,0.468,0.468,0.468,0.468,0.469,0.469,0.469,0.469,0.469,0.47,0.47,0.469,0.468,0.466,0.463,0.461,0.458,0.456,0.453,0.451,0.448,0.447,0.446,0.445,0.445,0.444,0.443,0.443,0.442,0.442,0.441,0.44,0.44,0.439,0.439,0.438,0.437,0.437,0.437,0.436,0.436,0.436,0.436,0.436,0.437,0.437,0.437,0.437,0.438,0.438,0.438,0.438,0.438,0.438,0.439,0.439,0.439,0.439,0.44,0.44,0.44,0.44,0.441,0.441,0.442,0.442,0.442,0.442,0.442,0.442,0.443,0.443,0.443,0.443,0.444,0.444,0.444,0.444,0.444,0.444,0.445,0.445,0.445,0.446,0.446,0.446,0.447,0.447,0.447,0.448,0.448,0.448,0.449,0.449,0.45,0.45,0.45,0.451,0.451,0.451,0.451,0.452,0.452,0.452,0.453,0.453,0.453,0.454,0.454,0.454,0.455,0.455,0.456,0.456,0.456,0.457,0.457,0.457,0.457,0.457,0.457,0.458,0.458,0.458,0.458,0.458,0.458,0.459,0.459,0.459,0.46,0.46,0.46,0.46,0.46,0.461,0.461,0.462,0.462,0.462,0.463,0.463,0.464,0.464,0.464,0.465,0.465,0.465,0.465,0.466,0.466,0.466,0.466,0.467,0.467,0.468
0,0,0,0,0,0,0,0,0,0,0,0,0,0,0,0,0,0,0,0,0,0,0,0,0,0,0,0,0,0,0,0,0,0,0,0,0,0,0,0,0,0,0,0,0,0,0,0.399,0.399,0.398,0.398,0.399,0.399,0.399,0.399,0.399,0.399,0.399,0.399,0.399,0.399,0.399,0.4,0.4,0.4,0.401,0.401,0.402,0.402,0.402,0.402,0.403,0.403,0.403,0.403,0.403,0.404,0.404,0.404,0.404,0.404,0.404,0.404,0.404,0.404,0.404,0.404,0.404,0.404,0.403,0.403,0.402,0.4,0.398,0.395,0.392,0.39,0.388,0.386,0.384,0.382,0.38,0.379,0.378,0.377,0.377,0.376,0.376,0.376,0.377,0.377,0.377,0.377,0.377,0.377,0.378,0.378,0.378,0.378,0.378,0.379,0.379,0.379,0.379,0.38,0.38,0.38,0.38,0.38,0.38,0.38,0.38,0.38,0.38,0.38,0.38,0.38,0.38,0.381,0.381,0.381,0.381,0.382,0.382,0.383,0.383,0.383,0.383,0.383,0.384,0.384,0.384,0.384,0.384,0.384,0.385,0.385,0.385,0.385,0.385,0.385,0.385,0.385,0.385,0.385,0.386,0.386,0.386,0.386,0.386,0.387,0.387,0.387,0.387,0.387,0.387,0.388,0.388,0.388,0.388,0.388,0.388,0.389,0.389,0.389,0.39,0.39,0.39,0.39,0.39,0.39,0.39,0.39,0.39,0.391,0.391,0.391,0.391,0.392,0.392,0.392,0.393,0.393,0.393,0.393,0.393,0.393,0.394,0.394,0.394,0.394,0.394,0.395,0.395,0.395,0.395,0.396,0.396,0.396,0.396,0.396,0.397,0.397,0.397,0.397,0.397,0.397,0.397,0.398,0.397,0.398,0.398,0.398,0.398,0.398,0.399,0.399,0.399,0.399,0.399,0.399,0.399,0.4,0.4,0.401,0.401,0.4,0.401,0.401,0.401,0.402,0.402,0.402,0.403,0.403,0.403,0.403,0.404,0.404,0.404,0.404,0.404,0.404,0.404,0.404,0.404,0.405,0.405,0.405,0.405,0.406,0.406,0.406,0.406,0.407,0.407,0.407,0.407,0.407,0.408,0.408,0.408,0.409,0.409,0.409,0.409,0.409,0.409,0.409,0.409,0.409,0.409,0.41,0.41,0.41,0.41,0.41,0.41,0.411,0.411,0.411,0.411,0.412,0.412,0.412,0.412,0.412,0.412,0.413,0.413,0.413,0.413,0.413,0.414,0.414,0.414,0.414,0.415,0.415,0.415,0.415,0.415,0.415,0.416,0.416,0.416,0.417,0.417,0.417,0.417,0.417,0.417,0.418,0.418,0.418,0.418,0.418,0.419,0.419,0.419,0.419,0.419,0.419,0.419,0.42,0.42,0.42,0.42,0.421,0.421,0.421,0.421,0.422,0.422,0.423,0.423,0.423,0.423,0.423,0.423,0.423,0.424,0.424,0.424,0.424,0.425,0.425,0.426,0.427,0.428,0.431,0.434,0.438,0,0,0,0,0,0.462,0.462,0.463,0.463,0.464,0.464,0.465,0.465,0.465,0.466,0.466,0.466,0.467,0.467,0.467,0.467,0.468,0.468,0.468,0.469,0.469,0.469,0.469,0.469,0.469,0.467,0.465,0.463,0.461,0.458,0.456,0.453,0.451,0.448,0.447,0.446,0.445,0.444,0.443,0.443,0.442,0.442,0.441,0.44,0.44,0.439,0.439,0.438,0.438,0.437,0.436,0.436,0.436,0.436,0.436,0.436,0.436,0.436,0.436,0.436,0.436,0.437,0.437,0.437,0.437,0.437,0.437,0.438,0.438,0.438,0.438,0.439,0.439,0.439,0.439,0.44,0.44,0.441,0.441,0.441,0.441,0.441,0.441,0.442,0.442,0.442,0.442,0.443,0.443,0.443,0.443,0.443,0.444,0.444,0.444,0.444,0.445,0.445,0.445,0.446,0.446,0.446,0.447,0.447,0.448,0.448,0.448,0.449,0.449,0.449,0.45,0.45,0.45,0.45,0.451,0.451,0.451,0.452,0.452,0.453,0.453,0.453,0.454,0.454,0.454,0.455,0.455,0.456,0.456,0.456,0.456,0.456,0.456,0.457,0.457,0.457,0.457,0.457,0.457,0.458,0.458,0.458,0.458,0.458,0.459,0.459,0.459,0.46,0.46,0.46,0.461,0.461,0.461,0.462,0.462,0.463,0.463,0.464,0.464,0.464,0.464,0.465,0.465,0.465,0.465,0.466,0.466,0.466,0.466
0,0,0,0,0,0,0,0,0,0,0,0,0,0,0,0,0,0,0,0,0,0,0,0,0,0,0,0,0,0,0,0,0,0,0,0,0,0,0,0,0,0,0,0,0,0,0,0,0.398,0.398,0.398,0.398,0.398,0.398,0.398,0.398,0.398,0.398,0.398,0.399,0.399,0.399,0.399,0.399,0.4,0.4,0.401,0.401,0.401,0.402,0.402,0.402,0.402,0.402,0.403,0.403,0.403,0.403,0.403,0.403,0.403,0.404,0.404,0.404,0.404,0.404,0.404,0.403,0.403,0.403,0.402,0.401,0.399,0.397,0.394,0.392,0.39,0.387,0.385,0.383,0.381,0.38,0.379,0.378,0.377,0.376,0.376,0.376,0.376,0.376,0.376,0.376,0.377,0.377,0.377,0.377,0.377,0.377,0.378,0.378,0.378,0.378,0.378,0.379,0.379,0.379,0.38,0.38,0.38,0.38,0.38,0.38,0.38,0.38,0.38,0.38,0.38,0.38,0.38,0.38,0.381,0.381,0.381,0.382,0.382,0.383,0.383,0.383,0.383,0.383,0.383,0.384,0.384,0.384,0.384,0.384,0.384,0.384,0.384,0.384,0.385,0.385,0.385,0.385,0.385,0.385,0.385,0.385,0.385,0.386,0.386,0.386,0.386,0.386,0.387,0.387,0.387,0.387,0.387,0.388,0.388,0.388,0.388,0.388,0.388,0.389,0.389,0.389,0.389,0.389,0.389,0.389,0.389,0.39,0.39,0.39,0.39,0.391,0.391,0.391,0.391,0.392,0.392,0.392,0.392,0.393,0.393,0.393,0.393,0.394,0.394,0.394,0.394,0.394,0.394,0.395,0.395,0.395,0.396,0.396,0.396,0.396,0.396,0.397,0.397,0.397,0.397,0.397,0.397,0.397,0.397,0.397,0.397,0.397,0.398,0.398,0.398,0.398,0.399,0.399,0.399,0.399,0.399,0.399,0.4,0.4,0.4,0.4,0.401,0.401,0.401,0.402,0.402,0.402,0.402,0.403,0.403,0.403,0.403,0.403,0.403,0.403,0.403,0.403,0.404,0.404,0.404,0.404,0.404,0.404,0.405,0.405,0.405,0.405,0.406,0.406,0.406,0.406,0.407,0.407,0.407,0.407,0.408,0.408,0.408,0.408,0.408,0.408,0.408,0.408,0.409,0.409,0.409,0.409,0.409,0.409,0.409,0.41,0.41,0.41,0.41,0.41,0.411,0.411,0.411,0.411,0.411,0.411,0.412,0.412,0.412,0.412,0.413,0.413,0.413,0.413,0.414,0.414,0.414,0.415,0.415,0.415,0.415,0.415,0.415,0.416,0.416,0.416,0.417,0.417,0.417,0.417,0.417,0.418,0.418,0.418,0.418,0.418,0.418,0.418,0.418,0.418,0.418,0.419,0.419,0.419,0.419,0.419,0.419,0.42,0.42,0.421,0.421,0.421,0.422,0.422,0.422,0.422,0.422,0.423,0.423,0.423,0.423,0.424,0.424,0.425,0.425,0.427,0.427,0.429,0.432,0.435,0.439,0,0,0,0,0,0.461,0.462,0.462,0.463,0.463,0.464,0.464,0.464,0.465,0.465,0.465,0.466,0.466,0.466,0.466,0.466,0.467,0.467,0.468,0.468,0.468,0.468,0.468,0.468,0.468,0.467,0.465,0.463,0.461,0.458,0.456,0.453,0.451,0.448,0.447,0.446,0.445,0.444,0.443,0.442,0.441,0.441,0.44,0.44,0.439,0.439,0.438,0.438,0.437,0.436,0.436,0.435,0.435,0.435,0.435,0.435,0.435,0.435,0.435,0.436,0.436,0.436,0.436,0.436,0.436,0.436,0.437,0.437,0.437,0.437,0.438,0.438,0.438,0.438,0.439,0.439,0.439,0.44,0.44,0.44,0.44,0.441,0.441,0.441,0.441,0.441,0.441,0.442,0.442,0.442,0.442,0.443,0.443,0.443,0.443,0.444,0.444,0.444,0.445,0.445,0.445,0.446,0.446,0.446,0.447,0.447,0.447,0.448,0.448,0.448,0.449,0.449,0.449,0.449,0.45,0.45,0.45,0.451,0.451,0.452,0.452,0.452,0.453,0.453,0.454,0.454,0.454,0.455,0.455,0.455,0.455,0.456,0.456,0.456,0.456,0.456,0.456,0.456,0.457,0.457,0.457,0.457,0.457,0.458,0.458,0.458,0.458,0.458,0.459,0.459,0.46,0.46,0.461,0.461,0.461,0.462,0.462,0.463,0.463,0.463,0.463,0.464,0.464,0.464,0.465,0.465,0.465,0.465,0.466
