0.385,0.385,0.385,0.385,0.385,0.385,0.385,0.386,0.386,0.386,0.386,0.387,0.387,0.387,0.387,0.387,0.387,0.388,0.388,0.388,0.389,0.389,0.389,0.389,0.389,0.39,0.39,0.39,0.39,0.39,0.39,0.39,0.391,0.391,0.391,0.391,0.391,0.391,0.391,0.391,0.391,0.391,0.391,0.392,0.392,0.392,0.392,0.392,0.392,0.392,0.392,0.392,0.392,0.392,0.392,0,0,0,0,0,0,0,0,0,0,0.358,0.358,0.358,0.358,0.358,0.357,0.357,0.357,0.357,0.357,0.357,0.358,0.358,0.358,0.358,0.358,0.358,0.358,0.358,0.358,0.358,0.358,0.358,0.359,0.359,0.359,0.359,0.36,0.36,0.36,0.36,0.361,0.361,0.361,0.361,0.361,0.361,0.361,0.362,0.362,0.362,0.362,0.362,0.362,0.362,0.363,0.363,0.363,0.363,0.363,0.364,0.364,0.364,0.364,0.364,0.364,0.365,0.365,0.365,0.365,0.365,0.365,0.365,0.365,0.365,0.365,0.365,0.365,0.365,0.366,0.366,0.366,0.366,0.366,0.367,0.367,0.367,0.367,0.367,0.367,0.368,0.368,0.368,0.369,0.369,0.369,0.369,0.37,0.37,0.37,0.37,0.371,0.371,0.371,0.371,0.371,0.371,0.371,0.372,0.372,0.372,0.372,0.372,0.371,0.372,0.372,0.372,0.372,0.372,0.372,0.372,0.373,0.373,0.373,0.374,0.374,0.374,0.374,0.374,0.375,0.375,0.375,0.375,0.375,0.375,0.376,0.376,0.376,0.376,0.376,0.376,0.376,0.376,0.376,0.376,0.376,0.376,0.377,0.377,0.377,0.377,0.377,0.378,0.378,0.378,0.379,0.379,0.379,0.38,0.38,0.38,0.38,0.38,0.38,0.381,0.381,0.381,0.381,0.382,0.382,0.382,0.382,0.383,0.383,0.383,0.383,0.383,0.383,0.383,0.383,0.384,0.384,0.384,0.384,0.384,0.385,0.385,0.385,0.385,0.385,0.385,0.385,0.385,0.385,0.385,0.385,0.386,0.386,0.386,0.387,0.387,0.387,0.387,0.388,0.388,0.388,0.388,0.389,0.389,0.389,0.389,0.389,0.39,0.39,0.39,0.39,0.39,0.39,0.39,0.391,0.391,0.391,0.391,0.391,0.391,0.391,0.391,0.392,0.392,0.392,0.392,0.392,0.393,0.393,0.393,0.393,0.393,0.394,0.394,0.394,0.394,0.394,0.394,0.395,0.395,0.395,0.395,0.395,0.395,0.396,0.396,0.396,0.396,0.396,0.397,0.397,0.397,0.397,0.397,0.398,0.398,0.398,0.398,0.398,0.398,0.399,0.399,0.399,0.399,0.399,0.399,0.4,0.4,0.4,0.401,0.401,0.401,0.401,0.402,0.402,0.402,0.402,0.402,0.402,0.402,0.402,0.403,0.403,0.403,0.403,0.403,0.404,0.404,0.404,0.404,0.404,0.405,0.405,0.406,0.406,0.407,0.408,0.409,0.411,0.413,0.416,0.42,0.425,0,0,0,0,0,0.453,0.453,0.454,0.454,0.453,0.453,0.453,0.453,0.453,0.454,0.454,0.454,0.454,0.454,0.454,0.454,0.454,0.454,0.455,0.455,0.455,0.456,0.456,0.456,0.457,0.457,0.457,0.456,0.455,0.453,0.451,0.45,0.448,0.446,0.444,0.442,0.44,0.439,0.438,0.437,0.436,0.435,0.434,0.433,0.432,0.432,0.431,0.431,0.43,0.429,0.428,0.428,0.427,0.426,0.425,0.424,0.424,0.423,0.422,0.421,0.421,0.42,0.419,0.419,0.418,0.417,0.417,0,0,0,0,0,0,0,0,0,0,0,0,0,0,0,0,0,0,0,0,0,0,0,0,0,0,0,0,0,0,0,0,0,0,0,0,0,0,0,0,0,0,0,0,0,0,0,0,0.208,0.207,0.207,0.207,0.206,0.206,0.205,0.205,0.205,0.205,0.204,0.204,0.204,0.204,0.204,0.203,0.203,0.203,0.202,0.202,0.202,0.201,0.201,0.2,0.2,0.199,0.199,0.198,0.198,0.197,0.197,0.197,0.196,0.196,0.196,0.195,0.195,0.195,0.195,0.194,0.194,0.194,0.194,0.194,0.193,0.193,0.193,0.193,0.192,0.192,0.192,0.192,0.192,0.192,0.191,0.191,0.191,0.191,0.191,0.191,0.191,0.19,0.19,0.19,0.19,0.19,0.19,0.19,0.189,0.189,0.189,0.189,0.189,0.189,0.189,0.189,0.189,0.188,0.188,0.188,0.188,0.188,0.188,0.188,0.188,0.188,0.188,0.188
0.384,0.385,0.385,0.385,0.385,0.385,0.385,0.385,0.385,0.385,0.386,0.386,0.386,0.386,0.386,0.386,0.387,0.387,0.387,0.388,0.388,0.388,0.389,0.389,0.389,0.389,0.389,0.389,0.389,0.389,0.389,0.39,0.39,0.39,0.39,0.39,0.39,0.39,0.39,0.39,0.39,0.39,0.391,0.391,0.391,0.391,0.391,0.391,0.392,0.391,0.391,0.391,0.391,0.391,0,0,0,0,0,0,0,0,0,0,0,0,0.359,0.358,0.358,0.357,0.357,0.357,0.357,0.357,0.357,0.357,0.357,0.357,0.357,0.357,0.357,0.358,0.358,0.358,0.358,0.358,0.358,0.358,0.358,0.358,0.358,0.359,0.359,0.359,0.359,0.36,0.36,0.36,0.36,0.36,0.36,0.361,0.361,0.361,0.361,0.361,0.361,0.361,0.361,0.362,0.362,0.362,0.362,0.362,0.363,0.363,0.363,0.363,0.363,0.363,0.364,0.364,0.364,0.364,0.364,0.364,0.364,0.364,0.364,0.364,0.364,0.364,0.364,0.364,0.365,0.365,0.365,0.365,0.366,0.366,0.366,0.366,0.366,0.367,0.367,0.367,0.367,0.367,0.368,0.368,0.368,0.368,0.369,0.369,0.369,0.369,0.37,0.37,0.37,0.37,0.371,0.371,0.371,0.371,0.371,0.371,0.371,0.371,0.371,0.371,0.371,0.371,0.371,0.371,0.371,0.372,0.372,0.372,0.372,0.373,0.373,0.373,0.374,0.374,0.374,0.374,0.374,0.375,0.375,0.375,0.375,0.375,0.375,0.375,0.376,0.375,0.376,0.376,0.376,0.376,0.376,0.376,0.376,0.376,0.376,0.377,0.377,0.377,0.377,0.378,0.378,0.378,0.379,0.379,0.379,0.38,0.38,0.38,0.38,0.38,0.38,0.381,0.381,0.381,0.381,0.381,0.382,0.382,0.382,0.382,0.382,0.382,0.382,0.382,0.382,0.383,0.383,0.383,0.383,0.383,0.383,0.383,0.384,0.384,0.384,0.384,0.384,0.384,0.384,0.385,0.385,0.385,0.385,0.386,0.386,0.386,0.387,0.387,0.387,0.387,0.387,0.387,0.388,0.388,0.388,0.388,0.389,0.389,0.389,0.389,0.389,0.389,0.389,0.39,0.39,0.39,0.39,0.39,0.39,0.39,0.39,0.391,0.391,0.391,0.391,0.391,0.391,0.392,0.392,0.392,0.392,0.393,0.393,0.393,0.393,0.393,0.393,0.393,0.394,0.394,0.394,0.394,0.394,0.394,0.395,0.395,0.395,0.395,0.396,0.396,0.396,0.396,0.396,0.397,0.397,0.397,0.397,0.398,0.398,0.398,0.398,0.398,0.398,0.399,0.399,0.399,0.399,0.399,0.399,0.399,0.4,0.4,0.401,0.401,0.401,0.401,0.402,0.402,0.402,0.402,0.402,0.402,0.402,0.402,0.402,0.403,0.403,0.403,0.403,0.403,0.403,0.404,0.404,0.405,0.406,0.406,0.407,0.409,0.411,0.414,0,0.424,0,0,0,0,0,0,0.451,0.452,0.452,0.452,0.452,0,0,0.452,0.453,0.453,0.453,0.453,0.453,0.453,0.453,0.453,0.454,0.454,0.454,0.454,0.454,0.454,0.455,0.455,0.456,0.456,0.456,0.455,0.454,0.453,0.451,0.449,0.447,0.446,0.444,0.442,0.44,0.439,0.438,0.437,0.436,0.435,0.434,0.433,0.432,0.432,0.431,0.43,0.43,0.429,0.428,0.427,0.427,0.426,0.425,0.424,0.423,0.422,0.422,0.421,0.421,0.42,0.419,0.418,0.418,0.417,0.417,0,0,0,0,0,0,0,0,0,0,0,0,0,0,0,0,0,0,0,0,0,0,0,0,0,0,0,0,0,0,0,0,0,0,0,0,0,0,0,0,0,0,0,0,0,0,0,0,0,0,0,0,0,0.206,0.206,0.205,0.205,0.205,0.205,0.205,0.204,0.204,0.204,0.204,0.203,0.203,0.203,0.202,0.202,0.201,0.201,0.2,0.2,0.199,0.199,0.199,0.198,0.198,0.197,0.197,0.196,0.196,0.196,0.196,0.195,0.195,0.195,0.195,0.194,0.194,0.194,0.194,0.193,0.193,0.193,0.193,0.192,0.192,0.192,0.192,0.192,0.191,0.191,0.191,0.191,0.191,0.191,0.191,0.19,0.19,0.19,0.19,0.19,0.19,0.19,0.189,0.189,0.189,0.189,0.189,0.189,0.189,0.189,0.188,0.188,0.188,0.188,0.188,0.188,0.188,0.188,0.188,0.188,0.188,0.188,0.188
0.384,0.384,0.384,0.384,0.384,0.384,0.384,0.385,0.385,0.385,0.385,0.385,0.385,0.385,0.386,0.386,0.386,0.386,0.387,0.387,0.387,0.387,0.388,0.388,0.388,0.388,0.388,0.388,0.388,0.389,0.389,0.389,0.389,0.389,0.389,0.389,0.389,0.389,0.389,0.39,0.39,0.39,0.39,0.39,0.39,0.391,0.391,0.391,0.39,0.391,0.39,0.39,0.39,0.39,0.39,0,0,0,0,0,0,0,0,0,0,0,0,0.358,0.357,0.357,0.357,0.357,0.356,0.356,0.356,0.356,0.356,0.356,0.356,0.356,0.357,0.357,0.357,0.357,0.357,0.357,0.357,0.357,0.357,0.357,0.358,0.358,0.358,0.358,0.358,0.359,0.359,0.359,0.359,0.36,0.36,0.36,0.36,0.36,0.36,0.36,0.36,0.36,0.361,0.361,0.361,0.361,0.361,0.362,0.362,0.362,0.362,0.362,0.363,0.363,0.363,0.363,0.363,0.363,0.363,0.363,0.363,0.363,0.363,0.363,0.363,0.364,0.364,0.364,0.364,0.364,0.364,0.365,0.365,0.365,0.365,0.366,0.366,0.366,0.366,0.366,0.367,0.367,0.367,0.367,0.367,0.368,0.368,0.368,0.368,0.369,0.369,0.369,0.369,0.369,0.37,0.37,0.37,0.37,0.37,0.37,0.37,0.37,0.37,0.37,0.37,0.37,0.37,0.371,0.371,0.371,0.371,0.371,0.372,0.372,0.372,0.373,0.373,0.373,0.373,0.374,0.374,0.374,0.374,0.374,0.374,0.375,0.375,0.375,0.375,0.375,0.375,0.375,0.375,0.375,0.375,0.375,0.375,0.376,0.376,0.376,0.376,0.376,0.376,0.377,0.377,0.377,0.378,0.378,0.378,0.379,0.379,0.379,0.38,0.38,0.38,0.38,0.38,0.38,0.381,0.381,0.381,0.381,0.381,0.381,0.381,0.381,0.381,0.381,0.382,0.382,0.382,0.382,0.382,0.382,0.383,0.383,0.383,0.383,0.383,0.383,0.383,0.384,0.384,0.384,0.384,0.385,0.385,0.385,0.385,0.386,0.386,0.386,0.386,0.386,0.386,0.387,0.387,0.387,0.387,0.388,0.388,0.388,0.388,0.389,0.389,0.389,0.389,0.389,0.389,0.389,0.389,0.389,0.389,0.389,0.39,0.39,0.39,0.39,0.39,0.39,0,0,0,0.391,0.391,0.392,0.392,0.392,0.392,0.392,0.392,0.392,0.393,0.393,0.393,0.393,0.393,0.393,0.394,0.394,0.394,0.394,0.395,0.395,0.395,0.396,0.396,0.396,0.396,0.396,0.397,0.397,0.397,0.397,0.397,0.398,0.398,0.398,0.398,0.398,0.398,0.398,0.398,0.398,0.399,0.399,0.399,0.4,0.4,0.4,0.401,0.401,0.401,0.401,0.401,0.401,0.401,0.401,0.401,0.402,0.402,0.402,0.402,0.402,0.403,0.403,0.403,0.404,0.405,0.405,0.407,0.408,0.41,0,0.42,0,0,0,0.443,0.446,0.448,0.449,0.45,0.45,0.451,0.451,0.451,0.451,0.451,0.452,0.452,0.452,0.452,0.452,0.453,0.453,0.453,0.453,0.453,0.453,0.453,0.453,0.453,0.453,0.454,0.454,0.455,0.455,0.455,0.454,0.453,0.452,0.451,0.449,0.447,0.445,0.443,0.442,0.44,0.439,0.438,0.437,0.436,0.435,0.434,0.433,0.432,0.431,0.431,0.43,0.429,0.428,0.428,0.427,0.426,0.425,0.424,0.424,0.423,0.422,0.422,0.421,0.42,0.419,0.419,0.418,0.417,0.417,0.416,0.416,0.415,0,0.415,0,0,0,0,0,0,0,0,0,0,0,0,0,0,0,0,0,0,0,0,0,0,0,0,0,0,0,0,0,0,0,0,0,0,0,0,0,0,0,0,0,0,0,0,0,0,0,0,0,0,0,0,0,0,0.205,0.205,0.205,0.205,0.204,0.204,0.204,0.203,0.203,0.202,0.202,0.201,0.201,0.2,0.2,0.2,0.199,0.199,0.198,0.198,0.197,0.197,0.197,0.196,0.196,0.196,0.195,0.195,0.195,0.195,0.194,0.194,0.194,0.194,0.193,0.193,0.193,0.193,0.192,0.192,0.192,0.192,0.192,0.191,0.191,0.191,0.191,0.191,0.191,0.191,0.19,0.19,0.19,0.19,0.19,0.19,0.19,0.189,0.189,0.189,0.189,0.189,0.189,0.189,0.188,0.188,0.188,0.188,0.188,0.188,0.188,0.188,0.188,0.188,0.188,0.188,0.188,0.188
0.383,0.383,0.384,0.384,0.384,0.384,0.384,0.384,0.384,0.384,0.384,0.385,0.385,0.385,0.385,0.385,0.385,0.385,0.386,0.386,0.386,0.386,0.387,0.387,0.387,0.387,0.387,0,0,0.388,0.388,0.388,0.388,0.388,0.388,0.388,0.388,0.388,0.389,0.389,0.389,0.389,0.389,0.39,0.39,0.39,0.39,0.39,0.39,0.39,0.39,0.39,0.39,0.39,0.39,0.39,0.39,0.389,0,0,0,0,0,0,0,0,0,0.358,0.357,0.357,0.357,0.356,0.356,0.356,0.356,0.356,0.356,0.356,0.356,0.356,0.356,0.356,0.356,0.356,0.356,0.356,0.356,0.356,0.357,0.357,0.357,0.357,0.357,0.357,0.358,0.358,0.358,0.358,0.359,0.359,0.359,0.359,0.359,0.359,0.359,0.359,0.36,0.36,0.36,0.36,0.36,0.36,0.361,0.361,0.361,0.361,0.362,0.362,0.362,0.362,0.362,0.362,0.363,0.363,0.363,0.363,0.363,0.363,0.363,0.363,0.363,0.363,0.363,0.363,0.363,0.363,0.364,0.364,0.364,0.364,0.365,0.365,0.365,0.365,0.365,0.366,0.366,0.366,0.366,0.366,0.367,0.367,0.367,0.367,0.367,0.368,0.368,0.368,0.369,0.369,0.369,0.369,0.369,0.369,0.369,0.369,0.369,0.369,0.369,0.369,0.37,0.37,0.37,0.37,0.37,0.371,0.371,0.371,0.371,0.371,0.372,0.372,0.372,0.372,0.373,0.373,0.373,0.374,0.374,0.374,0.374,0.374,0.374,0.374,0.375,0.375,0.375,0.374,0.375,0.375,0.374,0.375,0.375,0.375,0.375,0.375,0.375,0.376,0.376,0.376,0.376,0.377,0.377,0.377,0.378,0.378,0.378,0.379,0.379,0.379,0.379,0.379,0.38,0.38,0.38,0.38,0.38,0.38,0.38,0.38,0.38,0.38,0.38,0.38,0.38,0.381,0.381,0.381,0.381,0.381,0.382,0.382,0.382,0.382,0.382,0.382,0.383,0.383,0.383,0.383,0.384,0.384,0.384,0.384,0.385,0.385,0.385,0.385,0.385,0.385,0.386,0.386,0.386,0.387,0.387,0.387,0.387,0.387,0.388,0.388,0.388,0.388,0.388,0.388,0.388,0.388,0.388,0.388,0.389,0.389,0.389,0.389,0.389,0.389,0.389,0.389,0.39,0.39,0.39,0.39,0.391,0.391,0.391,0.391,0.391,0.392,0.392,0.392,0.392,0.392,0.392,0.392,0.392,0.393,0.393,0.393,0.393,0.393,0.394,0.394,0.395,0.395,0.395,0.395,0.396,0.396,0.396,0.396,0.396,0.396,0.397,0.397,0.397,0.397,0.397,0.397,0.397,0.397,0.397,0.398,0.398,0.398,0.398,0.399,0.399,0.399,0.4,0.4,0.4,0.4,0.4,0.4,0.4,0.4,0.401,0.401,0.401,0.401,0.401,0.402,0.402,0.402,0.402,0.403,0.404,0.404,0.406,0.408,0,0,0,0,0.434,0.439,0.443,0.446,0.447,0.448,0.449,0.449,0.449,0.45,0.45,0.45,0.451,0.451,0.451,0.451,0.451,0.452,0.452,0.452,0.452,0.452,0.452,0.452,0.452,0.452,0.452,0.452,0.453,0.453,0.454,0.454,0.454,0.453,0.452,0.451,0.45,0.448,0.447,0.445,0.443,0.442,0.44,0.439,0.438,0.437,0.436,0.435,0.434,0.433,0.432,0.431,0.43,0.43,0.429,0.428,0.427,0.426,0.425,0.425,0.424,0.423,0.423,0.422,0.421,0.42,0.42,0.419,0.419,0.418,0.417,0.417,0.416,0.415,0,0.415,0.415,0.414,0,0,0,0,0,0,0,0,0,0,0,0,0,0,0,0,0,0,0,0,0,0,0,0,0,0,0,0,0,0,0,0,0,0,0,0,0,0,0,0,0,0,0,0,0,0,0,0,0,0,0,0,0,0,0.206,0.205,0.205,0.205,0.204,0.204,0.204,0.203,0.203,0.202,0.202,0.201,0.201,0.2,0.2,0.199,0.199,0.198,0.198,0.198,0.197,0.197,0.196,0.196,0.196,0.195,0.195,0.195,0.195,0.194,0.194,0.194,0.194,0.193,0.193,0.193,0.193,0.192,0.192,0.192,0.192,0.192,0.191,0.191,0.191,0.191,0.191,0.191,0.19,0.19,0.19,0.19,0.19,0.19,0.19,0.19,0.189,0.189,0.189,0.189,0.189,0.189,0.188,0.188,0.188,0.188,0.188,0.188,0.188,0.188,0.188,0.188,0.188,0.188,0.188,0.188,0.188
0.383,0.383,0.383,0.383,0.383,0.383,0.383,0.383,0.383,0.384,0.384,0.384,0.384,0.384,0.384,0.384,0.384,0.385,0.385,0.385,0.385,0.386,0.386,0.386,0.386,0.386,0.386,0.386,0.387,0.387,0.387,0.387,0.387,0.387,0.387,0.387,0.387,0.387,0.388,0.388,0.388,0.388,0.389,0.389,0.389,0.389,0.389,0.389,0.39,0.39,0.39,0.39,0.389,0.39,0.39,0.39,0.39,0.389,0.389,0,0,0,0,0,0,0,0,0,0,0.358,0.356,0.356,0.356,0.355,0.356,0.355,0.355,0.355,0.355,0.355,0.355,0.355,0.355,0.355,0.355,0.355,0.355,0.356,0.356,0.356,0.356,0.356,0.356,0.357,0.357,0.357,0.357,0.358,0.358,0.358,0.358,0.358,0.358,0.358,0.358,0.359,0.359,0.359,0.359,0.359,0.36,0.36,0.36,0.36,0.361,0.361,0.361,0.361,0.361,0.361,0.361,0.361,0.362,0.362,0.362,0.362,0.362,0.362,0.362,0.362,0.362,0.362,0.362,0.363,0.363,0.363,0.363,0.363,0.363,0.364,0.364,0.364,0.364,0.364,0.364,0.365,0.365,0.365,0.366,0.366,0.366,0.366,0.366,0.366,0.367,0.367,0.367,0.367,0.367,0.368,0.368,0.368,0.368,0.369,0.369,0.369,0.369,0.369,0.369,0.369,0.369,0.369,0.369,0.369,0.37,0.37,0.37,0.37,0.371,0.371,0.371,0.371,0.371,0.372,0.372,0.372,0.373,0.373,0.373,0.374,0.374,0.374,0.374,0.374,0.374,0.374,0.374,0.374,0.374,0.374,0.374,0.374,0.374,0.374,0.374,0.374,0.375,0.375,0.375,0.375,0.376,0.376,0.376,0.376,0.377,0.377,0.377,0.378,0.378,0.378,0.378,0.379,0.379,0.379,0.379,0.379,0.379,0.379,0.379,0.38,0.38,0.38,0.38,0.38,0.38,0.38,0.38,0.38,0.38,0.38,0.381,0.381,0.381,0.381,0.381,0.381,0.382,0.382,0.382,0.382,0.383,0.383,0.383,0.384,0.384,0.384,0.384,0.384,0.385,0.385,0.385,0.385,0.385,0.386,0.386,0.386,0.386,0.387,0.387,0.387,0.387,0.387,0.387,0.387,0.387,0.388,0.388,0.388,0.388,0.388,0.388,0.388,0.388,0.388,0.388,0.388,0.389,0.389,0.389,0.389,0.39,0.39,0.39,0.39,0.39,0.391,0.391,0.391,0.391,0.391,0.391,0.391,0.391,0.392,0.392,0.392,0.392,0.393,0.393,0.394,0.394,0.394,0.394,0.395,0.395,0.395,0.395,0.395,0.396,0.396,0.396,0.396,0.396,0.396,0.396,0.397,0.397,0.396,0.397,0.397,0.397,0.397,0.397,0.398,0.398,0.398,0.399,0.399,0.399,0.399,0.399,0.399,0.399,0.399,0.4,0.4,0.4,0.4,0.4,0.401,0.401,0.401,0.402,0.402,0.403,0.404,0.405,0.407,0,0,0.426,0.432,0.438,0.441,0.443,0.445,0.446,0.447,0.447,0.448,0.448,0.449,0.449,0.449,0.45,0.45,0.45,0.45,0.451,0.451,0.451,0.451,0.451,0.451,0.451,0.451,0.451,0.451,0.451,0.451,0.452,0.452,0.452,0.453,0.453,0.452,0.452,0.451,0.449,0.448,0.446,0.445,0.443,0.442,0.44,0.439,0.438,0.437,0.436,0.434,0.434,0.433,0.431,0.431,0.43,0.429,0.428,0.428,0.427,0.426,0.425,0.424,0.423,0.423,0.422,0.421,0.421,0.42,0.419,0.419,0.418,0.418,0.417,0.417,0.416,0.415,0.415,0.415,0.415,0.414,0,0,0,0,0,0,0,0,0,0,0,0,0,0,0,0,0,0,0,0,0,0,0,0,0,0,0,0,0,0,0,0,0,0,0,0,0,0,0,0,0,0,0,0,0,0,0,0,0,0.208,0,0,0,0,0.206,0.206,0.205,0.205,0.205,0.204,0.204,0.203,0.203,0.202,0.202,0.201,0.201,0.2,0.2,0.199,0.199,0.199,0.198,0.198,0.197,0.197,0.197,0.196,0.196,0.196,0.195,0.195,0.195,0.194,0.194,0.194,0.194,0.193,0.193,0.193,0.193,0.192,0.192,0.192,0.192,0.191,0.191,0.191,0.191,0.191,0.191,0.191,0.19,0.19,0.19,0.19,0.19,0.19,0.19,0.189,0.189,0.189,0.189,0.189,0.189,0.189,0.188,0.188,0.188,0.188,0.188,0.188,0.188,0.188,0.188,0.188,0.188,0.187,0.187,0.187,0.187
0.382,0.382,0.383,0.383,0.383,0.383,0.383,0.383,0.383,0.383,0.383,0.383,0.383,0.383,0.383,0.384,0.384,0.384,0.384,0.384,0.385,0.385,0.385,0.385,0.385,0.385,0.385,0.386,0.386,0.386,0.386,0.386,0.386,0.386,0.386,0.386,0.386,0.387,0.387,0.387,0.387,0.388,0.388,0.388,0.388,0.388,0.389,0.389,0.389,0.389,0.389,0.389,0.389,0.389,0.389,0.389,0.389,0.389,0.388,0.387,0,0,0,0.376,0.371,0.367,0.365,0,0,0,0.357,0.356,0.356,0.355,0.355,0.355,0.354,0.354,0.354,0.354,0.354,0.354,0.354,0.355,0.355,0.355,0.355,0.355,0.355,0.355,0.355,0.356,0.356,0.356,0.356,0.356,0.357,0.357,0.357,0.357,0.357,0.358,0.358,0.358,0.358,0.358,0.358,0.358,0.359,0.359,0.359,0.359,0.36,0.36,0.36,0.36,0.36,0.36,0.36,0.361,0.361,0.361,0.361,0.361,0.361,0.361,0.361,0.361,0.361,0.361,0.361,0.362,0.362,0.362,0.362,0.362,0.362,0.363,0.363,0.363,0.363,0.363,0.363,0.363,0.364,0.364,0.364,0.364,0.364,0.365,0.365,0.365,0.365,0.365,0.366,0.366,0.366,0.366,0.367,0.367,0.367,0.367,0.367,0.367,0.368,0.368,0.368,0.368,0.368,0.368,0.368,0.369,0.369,0.369,0.369,0.369,0.369,0.37,0.37,0.37,0.371,0.371,0.371,0.371,0.371,0.372,0.372,0.372,0.373,0.373,0.373,0.374,0.374,0.374,0.374,0.374,0.374,0.374,0.374,0.374,0.374,0.374,0.374,0.374,0.374,0.374,0.374,0.374,0.375,0.375,0.375,0.375,0.376,0.376,0.376,0.377,0.377,0.377,0.377,0.377,0.378,0.378,0.378,0.378,0.378,0.378,0.378,0.378,0.378,0.378,0.379,0.379,0.379,0.379,0.379,0.379,0.379,0.379,0.38,0.38,0.38,0.38,0.38,0.38,0.38,0.381,0.381,0.381,0.381,0.382,0.382,0.382,0.383,0.383,0.383,0.383,0.384,0.384,0.384,0.384,0.384,0.384,0.385,0.385,0.385,0.385,0.385,0.386,0.386,0.386,0.386,0.386,0.386,0.386,0.387,0.387,0.387,0.387,0.387,0.387,0.387,0.387,0.387,0.387,0.387,0.387,0.388,0.388,0.388,0.388,0.389,0.389,0.389,0.39,0.39,0.39,0.39,0.39,0.39,0.39,0.39,0.39,0.39,0.391,0.391,0.391,0.391,0.392,0.392,0.393,0.393,0.393,0.394,0.394,0.394,0.394,0.395,0.395,0.395,0.395,0.395,0.395,0.395,0.396,0.396,0.396,0.396,0.396,0.396,0.396,0.396,0.396,0.396,0.397,0.397,0.397,0.398,0.398,0.398,0.398,0.398,0.398,0.398,0.399,0.399,0.399,0.399,0.399,0.399,0.4,0.4,0.4,0.401,0.402,0.403,0.403,0.406,0.41,0,0,0,0.436,0.441,0.443,0.444,0.445,0.446,0.446,0.447,0.447,0.447,0.448,0.448,0.448,0.449,0.449,0.449,0.449,0.45,0.45,0.45,0.45,0.45,0.45,0.45,0.45,0.45,0.45,0.45,0.45,0.45,0.451,0.451,0.451,0.452,0.451,0.451,0.45,0.449,0.448,0.446,0.445,0.443,0.442,0.44,0.439,0.438,0.437,0.435,0.434,0.433,0.432,0.431,0.431,0.43,0.429,0.428,0.427,0.426,0.425,0.425,0.424,0.423,0.423,0.422,0.421,0.421,0.42,0.419,0.419,0.418,0.417,0.417,0.417,0.416,0,0,0.415,0.414,0.414,0.414,0,0,0,0,0,0,0,0,0,0,0,0,0,0,0,0,0,0,0,0,0,0,0,0,0,0,0,0,0,0,0,0,0,0,0,0,0,0,0,0,0,0,0,0,0,0,0,0,0.208,0.208,0.208,0.207,0.207,0.207,0.206,0.206,0.206,0.205,0.205,0.204,0.204,0.203,0.203,0.202,0.201,0.201,0.201,0.2,0.2,0.199,0.199,0.198,0.198,0.198,0.197,0.197,0.196,0.196,0.196,0.195,0.195,0.195,0.195,0.194,0.194,0.194,0.193,0.193,0.193,0.192,0.192,0.192,0.192,0.192,0.191,0.191,0.191,0.191,0.191,0.191,0.19,0.19,0.19,0.19,0.19,0.19,0.19,0.189,0.189,0.189,0.189,0.189,0.189,0.189,0.188,0.188,0.188,0.188,0.188,0.188,0.188,0.188,0.188,0.187,0.187,0.187,0.187,0.187,0.187,0.187
0.382,0.382,0.382,0.382,0.382,0.382,0.382,0.382,0.382,0.382,0.382,0.382,0.382,0.382,0.383,0.383,0.383,0.383,0.383,0.384,0.384,0.384,0.384,0.385,0.384,0.384,0.385,0.385,0.385,0.385,0.385,0.385,0.385,0.385,0.386,0.386,0.386,0.386,0.386,0.386,0.386,0.387,0.387,0.387,0.388,0.388,0.388,0.388,0.388,0.388,0.389,0.388,0.388,0.389,0.389,0.388,0.388,0.388,0,0,0,0,0,0,0,0,0,0,0,0,0,0.356,0.355,0.355,0.355,0.354,0.354,0.354,0.354,0.354,0.354,0.354,0.354,0.354,0.354,0.354,0.354,0.354,0.354,0.355,0.355,0.355,0.355,0.355,0.355,0.356,0.356,0.356,0.356,0.356,0.357,0.357,0.357,0.357,0.357,0.357,0.358,0.358,0.358,0.358,0.358,0.359,0.359,0.359,0.359,0.36,0.36,0.36,0.36,0.36,0.36,0.36,0.36,0.36,0.36,0.36,0.361,0.361,0.361,0.361,0.361,0.361,0.361,0.361,0.361,0.361,0.362,0.362,0.362,0.362,0.362,0.363,0.363,0.363,0.363,0.363,0.363,0.363,0.364,0.364,0.364,0.364,0.364,0.364,0.365,0.365,0.365,0.366,0.366,0.366,0.366,0.366,0.367,0.367,0.367,0.367,0.367,0.368,0.367,0.368,0.368,0.368,0.368,0.368,0.369,0.369,0.369,0.369,0.369,0.37,0.37,0.37,0.37,0.371,0.371,0.371,0.371,0.372,0.372,0.372,0.373,0.373,0.373,0.374,0.374,0.374,0.374,0.373,0.373,0.373,0.373,0.373,0.373,0.373,0.373,0.373,0.373,0.374,0.374,0.374,0.374,0.375,0.375,0.375,0.376,0.376,0.376,0.376,0.376,0.377,0.377,0.377,0.377,0.377,0.377,0.377,0.377,0.377,0.377,0.378,0.378,0.378,0.378,0.378,0.378,0.378,0.378,0.378,0.379,0.379,0.379,0.379,0.379,0.38,0.38,0.38,0.38,0.381,0.381,0.381,0.381,0.382,0.382,0.382,0.382,0.383,0.383,0.383,0.383,0.383,0.383,0.383,0.384,0.384,0.384,0.384,0.384,0.385,0.385,0.385,0.385,0.385,0.385,0.386,0.386,0.386,0.386,0.386,0.386,0.386,0.386,0.386,0.386,0.386,0.386,0.387,0.387,0.387,0.387,0.388,0.388,0.388,0.389,0.389,0.389,0.389,0.389,0.389,0.389,0.389,0.39,0.39,0.39,0.39,0.39,0.39,0.391,0.391,0.391,0.392,0.392,0.393,0.393,0.393,0.393,0.394,0.394,0.394,0.394,0.395,0.394,0.395,0.395,0.395,0.395,0.395,0.395,0.395,0.395,0.395,0.395,0.395,0.395,0.396,0.396,0.396,0.396,0.397,0.397,0.397,0.397,0.398,0.398,0.398,0.398,0.398,0.398,0.398,0.399,0.399,0.399,0.4,0.401,0.402,0.403,0.404,0.407,0,0,0,0,0,0,0.443,0.444,0.445,0.445,0.446,0.446,0.446,0.447,0.447,0.447,0.448,0.448,0.448,0.448,0.448,0.449,0.449,0.449,0.449,0.449,0.449,0.449,0.449,0.449,0.449,0.449,0.449,0.449,0.449,0.45,0.45,0.45,0.45,0.449,0.449,0.448,0.447,0.446,0.445,0.443,0.442,0.44,0.439,0.438,0.437,0.435,0.434,0.433,0.432,0.431,0.43,0.429,0.428,0.428,0.427,0.426,0.425,0.424,0.424,0.423,0.422,0.421,0.421,0.42,0.419,0.419,0.418,0.418,0.417,0.417,0.416,0.415,0.415,0.415,0.414,0.414,0.414,0.413,0,0,0,0,0,0,0,0,0,0,0,0,0,0,0,0,0,0,0,0,0,0,0,0,0,0,0,0,0,0,0,0,0,0,0,0,0,0,0,0,0,0,0,0,0,0,0,0.209,0.209,0.208,0.208,0.208,0.208,0.207,0.207,0.206,0.206,0.206,0.205,0.204,0.204,0.203,0.203,0.202,0.202,0.201,0.201,0.2,0.2,0.2,0.199,0.199,0.198,0.198,0.197,0.197,0.196,0.196,0.196,0.196,0.195,0.195,0.195,0.194,0.194,0.194,0.193,0.193,0.193,0.192,0.192,0.192,0.192,0.192,0.191,0.191,0.191,0.191,0.191,0.191,0.19,0.19,0.19,0.19,0.19,0.19,0.189,0.189,0.189,0.189,0.189,0.189,0.189,0.189,0.188,0.188,0.188,0.188,0.188,0.188,0.188,0.187,0.187,0.187,0.187,0.187,0.187,0.187,0.187,0.187
0.381,0.381,0.381,0.381,0.382,0.381,0.381,0.381,0.381,0.381,0.381,0.381,0.381,0.382,0.382,0.382,0.382,0.382,0.382,0.383,0.383,0.383,0.383,0.383,0.383,0.384,0.384,0.384,0.384,0.384,0.384,0.384,0.385,0.385,0.385,0.385,0.385,0.385,0.385,0.385,0.386,0.386,0.386,0.387,0.387,0.387,0.387,0.387,0.388,0.388,0.388,0.388,0.388,0.388,0.388,0.388,0.388,0.388,0,0,0,0,0,0,0,0,0,0,0,0,0.357,0,0.355,0.355,0.354,0.354,0.353,0.353,0.353,0.353,0.353,0.353,0.353,0.353,0.353,0.353,0.353,0.354,0.354,0.354,0.354,0.354,0.355,0.355,0.355,0.355,0.355,0.355,0.356,0.356,0.356,0.356,0.356,0.356,0.356,0.356,0.357,0.357,0.357,0.358,0.358,0.358,0.358,0.358,0.359,0.359,0.359,0.359,0.359,0.359,0.359,0.359,0.359,0.36,0.36,0.36,0.36,0.36,0.36,0.36,0.36,0.36,0.36,0.361,0.361,0.361,0.361,0.361,0.361,0.361,0.362,0.362,0.362,0.362,0.362,0.362,0.363,0.363,0.363,0.363,0.363,0.363,0.363,0.364,0.364,0.364,0.364,0.364,0.365,0.365,0.365,0.366,0.366,0.366,0.366,0.366,0.367,0.367,0.367,0.367,0.367,0.368,0.368,0.368,0.368,0.368,0.368,0.369,0.369,0.369,0.369,0.369,0.37,0.37,0.37,0.371,0.371,0.371,0.371,0.372,0.372,0.373,0.373,0.373,0.373,0.373,0.373,0.373,0.373,0.373,0.373,0.373,0.373,0.373,0.372,0.373,0.373,0.373,0.373,0.374,0.374,0.374,0.374,0.375,0.375,0.375,0.376,0.376,0.376,0.376,0.376,0.376,0.376,0.376,0.376,0.376,0.376,0.376,0.376,0.376,0.377,0.377,0.377,0.377,0.377,0.377,0.377,0.378,0.378,0.378,0.378,0.378,0.379,0.379,0.379,0.379,0.38,0.38,0.38,0.38,0.38,0.381,0.381,0.382,0.382,0.382,0.382,0.382,0.382,0.382,0.382,0.383,0.383,0.383,0.383,0.383,0.383,0.384,0.384,0.384,0.385,0.385,0.385,0.385,0.385,0.385,0.385,0.385,0.385,0.385,0.385,0.385,0.385,0.386,0.386,0.386,0.386,0.386,0.387,0.387,0.387,0.387,0.388,0.388,0.388,0.388,0.388,0.388,0.389,0.389,0.389,0.389,0.389,0.389,0.389,0.39,0.39,0.39,0.391,0.391,0.391,0.392,0.392,0.392,0.393,0.393,0.393,0.393,0.394,0.394,0.394,0.394,0.394,0.394,0.394,0.394,0.394,0.394,0.394,0.394,0.394,0.394,0.394,0.395,0.395,0.395,0.396,0.396,0.396,0.396,0.397,0.397,0.397,0.397,0.397,0.397,0.397,0.398,0.398,0.398,0.399,0.399,0.399,0.401,0.402,0.403,0.409,0,0,0,0,0,0.442,0.443,0.443,0.444,0.444,0.445,0.445,0.445,0.446,0.446,0.446,0.446,0.447,0.447,0.447,0.447,0.448,0.448,0.448,0.448,0.448,0.448,0.448,0.448,0.448,0.448,0.448,0.448,0.448,0.449,0.449,0.449,0.449,0.449,0.448,0.448,0.447,0.446,0.446,0.445,0.443,0.442,0.441,0.439,0.438,0.437,0.435,0.434,0.433,0.432,0.431,0.43,0.429,0.428,0.428,0.427,0.426,0.425,0.424,0.423,0.423,0.422,0.421,0.421,0.42,0.419,0.419,0.418,0.417,0.417,0.416,0.416,0.415,0.415,0,0,0,0,0,0,0,0,0,0,0,0,0,0,0,0,0,0,0,0,0,0,0,0,0,0,0,0,0,0,0,0,0,0,0,0,0,0,0,0,0,0,0,0,0,0,0,0,0,0,0,0,0.209,0.209,0.209,0.209,0.208,0.208,0.208,0.207,0.207,0.207,0.206,0.205,0.205,0.204,0.204,0.203,0.203,0.202,0.202,0.201,0.201,0.2,0.2,0.199,0.199,0.198,0.198,0.197,0.197,0.197,0.196,0.196,0.196,0.195,0.195,0.195,0.194,0.194,0.194,0.193,0.193,0.193,0.193,0.192,0.192,0.192,0.192,0.191,0.191,0.191,0.191,0.191,0.19,0.19,0.19,0.19,0.19,0.19,0.189,0.189,0.189,0.189,0.189,0.189,0.189,0.189,0.188,0.188,0.188,0.188,0.188,0.188,0.188,0.188,0.187,0.187,0.187,0.187,0.187,0.187,0.187,0.187,0.187
0.38,0.381,0.381,0.381,0.381,0.381,0.381,0.38,0.38,0.38,0.38,0.381,0.381,0.381,0.381,0.381,0.381,0.381,0.382,0.382,0.382,0.382,0.382,0.383,0.383,0.383,0.383,0.383,0.383,0.384,0.384,0.384,0.384,0.384,0.384,0.385,0.385,0.385,0.385,0.385,0.385,0.385,0.386,0.386,0.386,0.386,0.386,0.386,0.387,0.387,0.387,0.387,0.387,0.387,0.387,0.387,0.387,0.387,0,0,0,0,0,0.383,0.382,0.381,0,0,0,0,0.357,0.355,0,0.354,0.354,0.353,0.353,0.353,0.353,0.353,0.352,0.352,0.352,0.353,0.353,0.353,0.353,0.353,0.353,0.354,0.354,0.354,0.354,0.354,0.354,0.354,0.355,0.355,0.355,0.355,0.355,0.355,0.355,0.355,0.356,0.356,0.356,0.356,0.357,0.357,0.357,0.357,0.358,0.358,0.358,0.358,0.358,0.358,0.358,0.358,0.358,0.358,0.359,0.359,0.359,0.359,0.359,0.359,0.359,0.36,0.36,0.36,0.36,0.36,0.36,0.36,0.36,0.361,0.361,0.361,0.361,0.361,0.361,0.361,0.362,0.362,0.362,0.362,0.362,0.362,0.362,0.363,0.363,0.363,0.363,0.363,0.363,0.364,0.364,0.364,0.364,0.364,0.365,0.365,0.365,0.366,0.366,0.366,0.366,0.367,0.367,0.367,0.367,0.367,0.368,0.368,0.368,0.368,0.368,0.369,0.369,0.369,0.369,0.369,0.369,0.37,0.37,0.37,0.371,0.371,0.372,0.372,0.372,0.372,0.373,0.373,0.373,0.373,0.372,0.372,0.372,0.372,0.372,0.372,0.372,0.372,0.372,0.372,0.372,0.373,0.373,0.373,0.373,0.374,0.374,0.374,0.374,0.375,0.375,0.375,0.375,0.375,0.375,0.375,0.375,0.375,0.375,0.375,0.375,0.376,0.376,0.376,0.376,0.376,0.377,0.377,0.377,0.377,0.377,0.378,0.378,0.378,0.378,0.378,0.378,0.378,0.379,0.379,0.379,0.38,0.38,0.38,0.38,0.381,0.381,0.381,0.381,0.381,0.381,0.381,0.381,0.382,0.382,0.382,0.382,0.382,0.382,0.383,0.383,0.383,0.384,0.384,0.384,0.384,0.384,0.384,0.385,0.384,0.385,0.385,0.385,0.385,0.385,0.385,0.385,0.385,0.385,0.385,0.386,0.386,0.386,0.386,0.387,0.387,0.387,0.387,0.387,0.388,0.388,0.388,0.388,0.388,0.388,0.388,0.389,0.389,0.389,0.389,0.39,0.39,0.391,0.391,0.391,0.391,0.392,0.392,0.392,0.393,0.393,0.393,0.393,0.393,0.394,0.394,0.394,0.394,0.393,0.393,0.393,0.393,0.393,0.393,0.393,0.394,0.394,0.394,0.395,0.395,0.395,0.396,0.396,0.396,0.396,0.396,0.396,0.397,0.397,0.397,0.397,0.398,0.398,0.398,0.399,0.402,0.404,0.407,0,0,0,0,0,0,0.441,0.442,0.442,0.443,0.443,0.444,0.444,0.444,0.445,0.445,0.445,0.446,0.446,0.446,0.446,0.446,0.446,0.447,0.447,0.447,0.447,0.447,0.447,0.447,0.447,0.447,0.447,0.447,0.447,0.448,0.448,0.448,0.448,0.448,0.447,0.447,0.446,0.446,0.446,0.445,0.443,0.442,0.441,0.439,0.438,0.437,0.436,0.434,0.433,0.432,0.431,0.43,0.429,0.428,0.427,0.426,0.425,0.425,0.424,0.423,0.423,0.422,0.421,0.42,0.42,0.419,0.418,0.418,0.417,0.417,0.416,0.415,0.415,0.414,0.414,0.414,0.413,0.413,0.413,0.413,0,0,0,0,0,0,0,0,0,0,0,0,0,0,0,0,0,0,0,0,0,0,0,0,0,0,0,0,0,0,0,0,0,0,0,0,0,0,0,0,0,0,0,0,0,0,0,0.209,0.209,0.209,0.209,0.208,0.208,0.208,0.208,0.207,0.207,0.206,0.205,0.205,0.204,0.204,0.203,0.203,0.202,0.202,0.201,0.201,0.2,0.199,0.199,0.198,0.198,0.198,0.197,0.197,0.196,0.196,0.196,0.195,0.195,0.195,0.194,0.194,0.194,0.193,0.193,0.193,0.192,0.192,0.192,0.192,0.192,0.191,0.191,0.191,0.191,0.191,0.19,0.19,0.19,0.19,0.19,0.19,0.189,0.189,0.189,0.189,0.189,0.189,0.189,0.189,0.188,0.188,0.188,0.188,0.188,0.188,0.188,0.187,0.187,0.187,0.187,0.187,0.187,0.187,0.187,0.187,0.187
0.38,0.38,0.38,0.38,0.38,0.38,0.38,0.38,0.38,0.38,0.38,0.38,0.38,0.38,0.38,0.38,0.381,0.381,0.381,0.381,0.381,0.382,0.382,0.382,0.382,0.382,0.382,0.382,0.383,0.383,0.383,0.383,0.383,0.384,0.384,0.384,0.384,0.384,0.384,0.384,0.384,0.385,0.385,0.385,0.385,0.385,0.385,0.386,0.386,0.386,0.386,0.386,0.386,0.387,0.387,0.387,0.386,0.386,0.386,0.385,0.385,0.384,0.384,0.383,0.383,0.382,0,0,0,0.367,0,0,0.355,0,0.354,0.353,0.352,0.352,0.352,0.352,0.352,0.352,0.352,0.352,0.352,0.352,0.352,0.352,0.353,0.353,0.353,0.353,0.353,0.353,0.354,0.354,0.354,0.354,0.354,0.354,0.354,0.354,0.355,0.355,0.355,0.355,0.355,0.356,0.356,0.356,0.357,0.357,0.357,0.357,0.357,0.357,0.357,0.357,0.358,0.358,0.358,0.358,0.358,0.358,0.358,0.358,0.359,0.359,0.359,0.359,0.359,0.359,0.359,0.36,0.36,0.36,0.36,0.36,0.36,0.36,0.36,0.36,0.361,0.361,0.361,0.361,0.361,0.361,0.361,0.361,0.362,0.362,0.362,0.362,0.362,0.362,0.363,0.363,0.363,0.363,0.364,0.364,0.364,0.364,0.364,0.365,0.365,0.366,0.366,0.366,0.366,0.366,0.366,0.367,0.367,0.367,0.367,0.367,0.368,0.368,0.368,0.368,0.368,0.368,0.369,0.369,0.369,0.369,0.37,0.37,0.371,0.371,0.371,0.371,0.372,0.372,0.372,0.371,0.371,0.371,0.371,0.371,0.371,0.371,0.371,0.371,0.371,0.371,0.372,0.372,0.372,0.372,0.372,0.373,0.373,0.373,0.374,0.374,0.374,0.374,0.374,0.374,0.374,0.374,0.374,0.374,0.374,0.374,0.375,0.375,0.375,0.375,0.376,0.376,0.376,0.376,0.376,0.376,0.377,0.377,0.377,0.377,0.377,0.377,0.377,0.378,0.378,0.378,0.379,0.379,0.379,0.38,0.38,0.38,0.38,0.381,0.38,0.38,0.38,0.38,0.38,0.38,0.381,0.381,0.381,0.381,0.381,0.382,0.382,0.382,0.383,0.383,0.383,0.383,0.383,0.384,0.384,0.384,0.384,0.384,0.384,0.384,0.384,0.384,0.384,0.385,0.385,0.385,0.385,0.385,0.385,0.385,0.386,0.386,0.386,0.386,0.386,0.387,0.387,0.387,0.387,0.387,0.388,0.388,0.388,0.388,0.388,0.388,0.389,0.389,0.39,0.39,0.39,0.391,0.391,0.392,0.392,0.392,0.392,0.392,0.393,0.393,0.393,0.393,0.393,0.393,0.393,0.393,0.392,0.392,0.392,0.393,0.393,0.393,0.393,0.394,0.394,0.394,0.394,0.395,0.395,0.395,0.396,0.396,0.396,0.396,0.396,0.396,0.397,0.397,0.397,0.397,0.398,0.401,0,0,0,0,0.432,0.436,0.438,0.439,0.44,0.441,0.441,0.442,0.442,0.442,0.443,0.443,0.443,0.444,0.444,0.444,0.445,0.445,0.445,0.445,0.445,0.446,0.446,0.446,0.446,0.446,0.446,0.446,0.446,0.446,0.446,0.446,0.447,0.447,0.447,0.447,0.447,0.447,0.447,0.446,0.446,0.446,0.445,0.444,0.443,0.442,0.441,0.44,0.438,0.437,0.436,0.434,0.433,0.432,0.431,0.43,0.429,0.428,0.427,0.426,0.425,0.425,0.424,0.423,0.422,0.422,0.421,0.42,0.419,0.419,0.418,0.418,0.417,0.416,0.416,0.415,0.415,0.414,0.413,0.413,0.413,0.412,0.412,0,0,0,0,0,0,0,0,0,0,0,0,0,0,0,0,0,0,0,0,0,0,0,0,0,0,0,0,0,0,0,0,0,0,0,0,0,0,0,0,0,0,0,0,0,0,0,0,0.209,0.209,0.209,0.209,0.209,0.209,0.208,0.208,0.208,0.207,0.207,0.206,0,0.205,0.204,0.203,0.203,0.203,0.202,0.201,0.201,0.2,0.2,0.199,0.199,0.198,0.198,0.197,0.197,0.197,0.196,0.196,0.196,0.195,0.195,0.194,0.194,0.194,0.193,0.193,0.193,0.192,0.192,0.192,0.192,0.192,0.191,0.191,0.191,0.191,0.191,0.19,0.19,0.19,0.19,0.19,0.189,0.189,0.189,0.189,0.189,0.189,0.189,0.189,0.188,0.188,0.188,0.188,0.188,0.188,0.188,0.187,0.187,0.187,0.187,0.187,0.187,0.187,0.187,0.187,0.187,0.186
0.379,0.379,0.379,0.38,0.38,0.379,0.379,0.379,0.379,0.379,0.379,0.379,0.379,0.379,0.38,0.38,0.38,0.38,0.38,0.381,0.381,0.381,0.381,0.381,0.381,0.382,0.382,0.382,0.382,0.383,0.383,0.383,0.383,0.383,0.383,0.383,0.383,0.384,0.384,0.384,0.384,0.384,0.384,0.385,0.385,0.385,0.385,0.385,0.385,0.385,0.386,0.386,0.386,0.386,0.386,0.386,0.386,0.386,0.385,0.385,0.385,0.384,0.384,0.384,0.383,0.383,0,0,0,0,0,0,0,0,0.354,0.353,0.352,0.352,0.352,0.352,0.352,0.351,0.351,0.351,0.351,0.351,0.352,0.352,0.352,0.352,0.352,0.352,0.353,0.353,0.353,0.353,0.353,0.353,0.353,0.354,0.354,0.354,0.354,0.354,0.354,0.354,0.355,0.355,0.356,0.356,0.356,0.356,0.356,0.357,0.357,0.357,0.357,0.357,0.357,0.357,0.357,0.357,0.357,0.358,0.358,0.358,0.358,0.358,0.358,0.358,0.358,0.359,0.359,0.359,0.359,0.359,0.359,0.359,0.359,0.359,0.36,0.36,0.36,0.36,0.36,0.36,0.361,0.361,0.361,0.361,0.361,0.361,0.361,0.361,0.361,0.362,0.362,0.362,0.362,0.363,0.363,0.363,0.363,0.363,0.364,0.364,0.364,0.365,0.365,0.365,0.366,0.366,0.366,0.366,0.366,0.367,0.367,0.367,0.367,0.367,0.367,0.368,0.368,0.367,0.368,0.368,0.369,0.369,0.369,0.369,0.37,0.37,0.37,0.371,0.371,0.371,0.371,0.371,0.371,0.371,0.371,0.371,0.371,0.37,0.37,0.37,0.37,0.371,0.371,0.371,0.371,0.371,0.372,0.372,0.372,0.372,0.372,0.373,0.373,0.373,0.373,0.373,0.373,0.373,0.373,0.373,0.373,0.374,0.374,0.374,0.374,0.374,0.375,0.375,0.375,0.375,0.376,0.376,0.376,0.376,0.376,0.376,0.377,0.377,0.377,0.377,0.377,0.378,0.378,0.378,0.379,0.379,0.379,0.38,0.38,0.38,0.38,0.38,0.38,0.38,0.38,0.38,0.38,0.38,0.38,0.38,0.38,0.381,0.381,0.381,0.381,0.382,0.382,0.382,0.382,0.382,0.383,0.383,0.383,0.383,0.383,0.383,0.383,0.383,0.384,0.384,0.384,0.384,0.384,0.384,0.385,0.385,0.385,0.385,0.385,0.385,0.386,0.386,0.386,0.386,0.386,0.387,0.387,0.387,0.387,0.387,0.387,0.388,0.388,0.388,0.389,0.389,0.39,0.39,0.39,0.391,0.391,0.391,0.392,0.392,0.392,0.392,0.392,0.392,0.392,0.392,0.392,0.392,0.392,0.392,0.392,0.392,0.392,0.392,0.392,0.393,0.393,0.393,0.393,0.394,0.394,0.394,0.395,0.395,0.395,0.395,0.395,0.396,0.396,0.396,0.397,0.397,0.398,0.401,0,0,0.425,0.426,0.432,0.435,0.437,0.439,0.439,0.44,0.44,0.441,0.441,0.441,0.442,0.442,0.442,0.443,0.443,0.443,0.443,0.443,0.444,0.444,0.444,0.445,0.444,0.445,0.445,0.445,0.445,0.445,0.445,0.445,0.445,0.446,0.446,0.446,0.446,0.446,0.446,0.446,0.446,0.446,0.445,0.445,0.445,0.444,0.443,0.442,0.441,0.44,0.438,0.437,0.436,0.434,0.433,0.432,0.431,0.43,0.429,0.428,0.427,0.426,0.425,0.424,0.423,0.423,0.422,0.421,0.421,0.42,0.419,0.418,0.418,0.417,0.417,0.416,0.415,0.415,0.414,0.414,0.413,0.413,0.412,0.412,0.412,0.411,0.411,0,0,0,0,0,0,0,0,0,0,0,0,0,0,0,0,0,0,0,0,0,0,0,0,0,0,0,0,0,0,0,0,0,0,0,0,0,0,0,0,0,0,0,0,0,0,0.209,0,0,0,0,0.209,0.209,0.208,0.208,0.208,0.207,0.206,0,0.205,0.204,0.204,0.203,0.203,0.202,0.202,0.201,0.201,0.2,0.2,0.199,0.199,0.198,0.198,0.197,0.197,0.196,0.196,0.196,0.195,0.195,0.194,0.194,0.194,0.193,0.193,0.193,0.192,0.192,0.192,0.192,0.192,0.191,0.191,0.191,0.191,0.191,0.19,0.19,0.19,0.19,0.189,0.189,0.189,0.189,0.189,0.189,0.189,0.189,0.188,0.188,0.188,0.188,0.188,0.188,0.188,0.187,0.187,0.187,0.187,0.187,0.187,0.187,0.187,0.186,0.186,0.186,0.186
0.378,0.378,0.378,0.379,0.379,0.379,0.378,0.378,0.378,0.378,0.378,0.379,0.379,0.379,0.379,0.379,0.38,0.38,0.38,0.38,0.38,0.38,0.38,0.38,0.381,0.381,0.381,0.381,0.382,0.382,0.382,0.382,0.382,0.382,0.383,0.383,0.383,0.383,0.383,0.383,0.383,0.384,0.384,0.384,0.384,0.384,0.384,0.384,0.385,0.385,0.385,0.385,0.385,0.385,0.385,0.385,0.385,0.385,0.385,0.385,0.384,0.384,0.384,0.384,0.383,0.383,0,0,0,0,0,0,0,0,0,0,0.352,0.351,0.351,0.351,0.351,0.351,0.351,0.351,0.351,0.351,0.351,0.351,0.351,0.352,0.352,0.352,0.352,0.352,0.352,0.353,0.353,0.353,0.353,0.353,0.353,0.353,0.353,0.353,0.353,0.354,0.354,0.354,0.355,0.355,0.355,0.355,0.356,0.356,0.356,0.356,0.356,0.356,0.356,0.356,0.356,0.357,0.357,0.357,0.357,0.357,0.357,0.358,0.358,0.358,0.358,0.358,0.358,0.358,0.358,0.358,0.358,0.359,0.359,0.359,0.359,0.359,0.359,0.359,0.36,0.36,0.36,0.36,0.36,0.36,0.36,0.36,0.36,0.361,0.361,0.361,0.361,0.361,0.362,0.362,0.362,0.362,0.362,0.363,0.363,0.363,0.364,0.364,0.364,0.364,0.365,0.365,0.365,0.365,0.366,0.366,0.366,0.366,0.366,0.366,0.367,0.367,0.367,0.367,0.367,0.367,0.367,0.368,0.368,0.368,0.369,0.369,0.369,0.37,0.37,0.37,0.37,0.37,0.37,0.37,0.37,0.37,0.369,0.369,0.369,0.369,0.37,0.37,0.37,0.37,0.371,0.371,0.371,0.371,0.371,0.371,0.371,0.371,0.372,0.372,0.372,0.372,0.372,0.372,0.372,0.372,0.372,0.372,0.373,0.373,0.373,0.374,0.374,0.374,0.374,0.374,0.375,0.375,0.375,0.376,0.376,0.376,0.376,0.376,0.376,0.377,0.377,0.377,0.377,0.378,0.378,0.378,0.379,0.379,0.379,0.379,0.379,0.379,0.379,0.379,0.379,0.379,0.379,0.379,0.379,0.379,0.38,0.38,0.38,0.38,0.381,0.381,0.381,0.381,0.381,0.381,0.382,0.382,0.382,0.382,0.382,0.382,0.383,0.383,0.383,0.383,0.383,0.383,0.383,0.384,0.384,0.384,0.384,0.384,0.385,0.385,0.385,0.385,0.385,0.385,0.385,0.386,0.386,0.386,0.386,0.386,0.387,0.387,0.387,0.388,0.388,0.388,0.389,0.389,0.389,0.39,0.39,0.39,0.391,0.391,0.391,0.391,0.391,0.391,0.391,0.391,0.391,0.391,0.391,0.391,0.391,0.391,0.391,0.391,0.391,0.392,0.392,0.392,0.393,0.393,0.393,0.393,0.394,0.394,0.394,0.394,0.395,0.395,0.396,0.396,0.396,0.397,0.398,0,0,0,0,0.429,0.435,0.436,0.437,0.438,0.438,0.439,0.439,0.439,0.44,0.44,0.441,0.441,0.441,0.441,0.442,0.442,0.442,0.442,0.443,0.443,0.443,0.443,0.443,0.443,0.443,0.444,0.444,0.444,0.444,0.444,0.444,0.445,0.445,0.445,0.445,0.445,0.445,0.445,0.445,0.445,0.445,0.444,0.445,0.444,0.443,0.442,0.441,0.439,0.438,0.437,0.435,0.434,0.433,0.432,0.431,0.43,0.429,0.428,0.427,0.426,0.425,0.424,0.423,0.423,0.422,0.421,0.42,0.42,0.419,0.418,0.417,0.417,0.416,0.416,0.415,0.414,0.414,0.413,0.413,0.412,0.412,0.412,0.411,0.411,0.41,0.41,0,0,0,0,0,0,0,0,0,0,0,0,0,0,0,0,0,0,0,0,0,0,0,0,0,0,0,0,0,0,0,0,0,0,0,0,0,0,0,0,0,0,0,0,0,0.21,0,0,0,0.209,0.209,0.209,0.209,0.209,0.208,0.208,0.207,0.206,0.206,0.205,0.204,0.204,0.203,0.203,0.202,0.202,0.201,0.201,0.2,0.2,0.199,0.199,0.198,0.198,0.197,0.197,0.196,0.196,0.195,0.195,0.195,0.194,0.194,0.194,0.193,0.193,0.192,0.192,0.192,0.192,0.192,0.191,0.191,0.191,0.191,0.19,0.19,0.19,0.19,0.189,0.189,0.189,0.189,0.189,0.189,0.189,0.189,0.188,0.188,0.188,0.188,0.188,0.188,0.188,0.187,0.187,0.187,0.187,0.187,0.187,0.187,0.187,0.186,0.186,0.186,0.186,0.186
0.377,0.377,0.378,0.378,0.378,0.378,0.377,0.378,0.377,0.377,0.377,0.378,0.378,0.378,0.378,0.379,0.379,0.379,0.379,0.379,0.38,0.38,0.38,0.38,0.38,0.38,0.381,0.381,0.381,0.381,0.382,0.382,0.382,0.382,0.382,0.382,0.383,0.383,0.383,0.383,0.383,0.383,0.383,0.383,0.383,0.384,0.384,0.384,0.384,0.384,0.384,0.385,0.385,0.385,0.385,0.385,0.385,0.385,0.385,0.385,0.384,0.384,0.384,0.384,0.383,0.383,0,0,0,0,0,0,0,0,0,0,0,0.351,0.351,0.351,0.351,0.351,0.351,0.351,0.351,0.351,0.351,0.351,0.351,0.351,0.351,0.351,0.351,0.352,0.352,0,0,0.352,0.352,0.352,0.352,0.352,0.352,0.352,0.353,0.353,0.353,0.354,0.354,0.354,0.355,0.355,0.355,0.355,0.355,0.355,0.355,0.355,0.355,0.356,0.356,0.356,0.356,0.356,0.356,0.357,0.357,0.357,0.357,0.357,0.357,0.357,0.357,0.358,0.358,0.358,0.358,0.358,0.358,0.358,0.358,0.359,0.359,0.359,0.359,0.359,0.359,0.359,0.359,0.359,0.36,0.36,0.36,0.36,0.36,0.36,0.361,0.361,0.361,0.361,0.361,0.361,0.362,0.362,0.362,0.363,0.363,0.363,0.363,0.364,0.364,0.364,0.364,0.364,0.365,0.365,0.365,0.365,0.366,0.366,0.366,0.366,0.366,0.366,0.366,0.366,0.367,0.367,0.367,0.367,0.368,0.368,0.368,0.369,0.369,0.369,0.369,0.369,0.369,0.369,0.369,0.369,0.369,0.369,0.369,0.369,0.369,0.369,0.369,0.369,0.37,0.37,0.37,0.37,0.37,0.37,0.371,0.371,0.371,0.371,0.371,0.371,0.371,0.371,0.371,0.371,0.371,0.372,0.372,0.372,0.372,0.373,0.373,0.373,0.374,0.374,0.374,0.374,0.374,0.375,0.375,0.375,0.375,0.375,0.376,0.376,0.376,0.376,0.376,0.377,0.377,0.377,0.378,0.378,0.378,0.378,0.378,0.378,0.378,0.378,0.378,0.378,0.378,0.378,0.378,0.379,0.379,0.379,0.379,0.38,0.38,0.38,0.38,0.38,0.38,0.38,0.381,0.381,0.381,0.381,0.381,0.382,0.382,0.382,0.382,0.382,0.383,0.383,0.383,0.383,0.383,0.383,0.383,0.383,0.384,0.384,0.384,0.384,0.384,0.385,0.385,0.385,0.385,0.385,0.385,0.386,0.386,0.386,0.386,0.387,0.387,0.387,0.388,0.388,0.389,0.389,0.389,0.389,0.389,0.39,0.39,0.39,0.39,0.39,0.39,0.39,0.39,0.39,0.39,0.39,0.39,0.39,0.39,0.39,0.391,0.391,0.391,0.391,0.392,0.392,0.392,0.392,0.393,0.393,0.394,0.394,0.394,0.395,0.395,0.396,0.396,0.396,0.397,0,0,0,0.425,0.432,0.435,0.436,0.437,0.437,0.438,0.438,0.438,0.439,0.439,0.439,0.44,0.44,0.44,0.44,0.44,0.44,0.441,0.441,0.441,0.441,0.441,0.442,0.442,0.442,0.442,0.442,0.443,0.443,0.443,0.443,0.443,0.443,0.444,0.444,0.444,0.444,0.444,0.444,0.444,0.444,0.444,0.444,0.444,0.444,0.443,0.442,0.441,0.44,0.438,0.437,0.435,0.434,0.433,0.432,0.43,0.429,0.429,0.428,0.427,0.426,0.425,0.424,0.423,0.422,0.422,0.421,0.42,0.419,0.418,0.418,0.417,0.417,0.416,0.415,0.415,0.414,0.413,0.413,0.412,0.412,0.412,0.411,0.411,0.411,0.41,0.41,0,0,0,0,0,0,0,0,0,0,0,0,0,0,0,0,0,0,0,0,0,0,0,0,0,0,0,0,0,0,0,0,0,0,0,0,0,0,0,0,0,0,0,0,0,0,0.21,0.21,0.21,0.21,0.21,0.209,0.209,0.209,0.208,0.208,0.207,0.207,0.206,0.205,0.205,0.204,0.204,0.203,0.203,0.202,0.202,0.201,0.201,0.2,0.199,0.199,0.198,0.198,0.197,0.197,0.197,0.196,0.196,0.195,0.195,0.194,0.194,0.194,0.193,0.193,0.193,0.192,0.192,0.192,0.192,0.191,0.191,0.191,0.191,0.19,0.19,0.19,0.19,0.19,0.189,0.189,0.189,0.189,0.189,0.189,0.188,0.188,0.188,0.188,0.188,0.188,0.188,0.187,0.187,0.187,0.187,0.187,0.187,0.187,0.186,0.186,0.186,0.186,0.186,0.186,0.186
0.376,0.376,0.376,0.377,0.377,0.377,0.377,0.377,0.377,0.377,0.377,0.377,0.377,0.377,0.378,0.378,0.378,0.378,0.379,0.379,0.379,0.379,0.379,0.379,0.38,0.38,0.38,0.38,0.38,0.381,0.381,0.381,0.381,0.382,0.382,0.382,0.382,0.382,0.382,0.382,0.382,0.382,0.383,0.383,0.383,0.383,0.383,0.383,0.383,0.383,0.384,0.384,0.384,0.384,0.384,0.384,0.384,0.384,0.384,0.384,0.384,0.384,0.384,0.383,0.383,0.383,0,0,0,0,0,0,0,0,0,0,0,0.352,0.351,0.351,0.351,0.351,0.351,0.351,0.35,0.35,0.35,0.35,0.35,0.351,0.351,0.351,0.351,0.351,0.351,0.351,0.351,0.351,0.351,0.351,0.351,0.351,0.352,0.352,0.352,0.352,0.353,0.353,0.353,0.354,0.354,0.354,0.354,0.355,0.355,0.355,0.355,0.355,0.355,0.355,0.355,0.355,0.356,0.356,0.356,0.356,0.356,0.356,0.356,0.357,0.357,0.357,0.357,0.357,0.357,0.357,0.357,0.357,0.358,0.358,0.358,0.358,0.358,0.358,0.358,0.358,0.358,0.359,0.359,0.359,0.359,0.359,0.359,0.36,0.36,0.36,0.36,0.36,0.36,0.361,0.361,0.361,0.361,0.361,0.362,0.362,0.362,0.362,0.363,0.363,0.363,0.363,0.363,0.363,0.364,0.364,0.364,0.364,0.365,0.365,0.365,0.365,0.365,0.365,0.365,0.365,0.366,0.366,0.366,0.366,0.367,0.367,0.367,0.367,0.368,0.368,0.368,0.368,0.368,0.368,0.368,0.368,0.368,0.368,0.368,0.368,0.368,0.368,0.368,0.369,0.369,0.369,0.369,0.369,0.369,0.37,0.37,0.37,0.37,0.37,0.37,0.37,0.37,0.37,0.37,0.371,0.371,0.371,0.371,0.371,0.372,0.372,0.372,0.373,0.373,0.373,0.373,0.374,0.374,0.374,0.374,0.374,0.374,0.375,0.375,0.375,0.375,0.376,0.376,0.376,0.376,0.376,0.377,0.377,0.377,0.377,0.377,0.377,0.378,0.378,0.377,0.378,0.377,0.378,0.378,0.378,0.378,0.378,0.379,0.379,0.379,0.379,0.379,0.379,0.38,0.38,0.38,0.38,0.38,0.381,0.381,0.381,0.381,0.381,0.381,0.382,0.382,0.382,0.382,0.382,0.382,0.382,0.383,0.383,0.383,0.383,0.383,0.383,0.383,0.384,0.384,0.384,0.384,0.385,0.385,0.385,0.385,0.385,0.386,0.386,0.386,0.386,0.387,0.387,0.387,0.388,0.388,0.388,0.388,0.389,0.389,0.389,0.389,0.389,0.389,0.389,0.389,0.389,0.389,0.389,0.389,0.389,0.389,0.389,0.389,0.39,0.39,0.39,0.391,0.391,0.391,0.392,0.392,0.392,0.393,0.393,0.394,0.395,0.395,0.396,0.396,0.396,0.397,0,0,0,0,0,0.435,0.436,0.436,0.436,0.437,0.437,0.437,0.438,0.438,0.438,0.439,0.439,0.439,0.439,0.439,0.439,0.439,0.44,0.44,0.44,0.44,0.44,0.441,0.441,0.441,0.441,0.442,0.442,0.442,0.442,0.442,0.443,0.443,0.443,0.443,0.443,0.443,0.443,0.443,0.443,0.443,0.443,0.443,0.443,0.443,0.442,0.441,0.439,0.438,0.437,0,0.434,0.433,0.431,0.43,0.429,0.428,0.428,0.426,0.426,0.425,0.424,0.423,0.422,0.421,0.421,0.42,0.419,0.418,0.417,0.417,0.416,0.415,0.415,0.414,0.413,0.413,0.412,0.412,0.412,0.411,0.411,0.41,0.41,0.409,0.409,0.409,0.409,0,0,0,0,0,0,0,0,0,0,0,0,0,0,0,0,0,0,0,0,0,0,0,0,0,0,0,0,0,0,0,0,0,0,0,0,0,0,0,0,0,0,0,0,0,0.21,0.21,0.21,0.21,0.21,0.209,0.209,0.209,0.208,0.208,0,0.207,0.206,0.205,0.205,0.204,0.204,0.203,0.203,0.202,0.202,0.201,0.2,0.2,0.199,0.199,0.198,0.198,0.197,0,0.196,0.196,0.195,0.195,0.195,0.194,0.194,0.193,0.193,0.193,0.192,0.192,0.192,0.192,0.191,0.191,0.191,0.191,0.19,0.19,0.19,0.19,0.189,0.189,0.189,0.189,0.189,0.189,0.188,0.188,0.188,0.188,0.188,0.188,0.188,0.187,0.187,0.187,0.187,0.187,0.187,0.187,0.186,0.186,0.186,0.186,0.186,0.186,0.186,0.186
0.375,0.376,0.375,0.376,0.376,0.376,0.376,0.376,0.376,0.376,0.376,0.376,0.376,0.376,0.377,0.377,0.377,0.378,0.378,0.378,0.378,0.378,0.378,0.379,0.379,0.379,0.38,0.38,0.38,0.38,0.38,0.381,0.381,0.381,0.381,0.381,0.381,0.382,0.382,0.382,0.382,0.382,0.382,0.382,0.382,0.382,0.382,0.382,0.382,0.383,0.383,0.383,0.383,0.383,0.383,0.384,0.384,0.384,0.384,0.384,0.384,0.383,0.383,0.383,0.383,0.383,0.383,0.382,0,0.382,0.381,0.381,0,0,0,0,0,0,0,0.351,0.351,0.35,0.35,0.35,0.35,0.35,0.35,0.35,0.35,0.35,0.35,0.35,0.35,0.35,0.351,0.351,0.351,0.351,0.351,0.351,0.351,0.351,0.351,0.351,0.351,0.351,0.352,0.352,0.353,0.353,0.353,0.353,0.354,0.354,0.354,0.354,0.354,0.354,0.354,0.354,0.355,0.355,0.355,0.355,0.355,0.356,0.356,0.356,0.356,0.356,0.356,0.356,0.356,0.356,0.356,0.357,0.357,0.357,0.357,0.357,0.357,0.357,0.357,0.357,0.357,0.358,0.358,0.358,0.358,0.358,0.358,0.358,0.359,0.359,0.359,0.359,0.359,0.36,0.36,0.36,0.36,0.36,0.36,0.36,0.361,0.361,0.361,0.361,0.362,0.362,0.362,0.362,0.362,0.363,0.363,0.363,0.363,0.364,0.364,0.364,0.364,0.364,0.364,0.364,0.364,0.364,0.365,0.365,0.365,0.365,0.366,0.366,0.366,0.366,0.366,0.366,0.367,0.367,0.367,0.367,0.367,0.367,0.367,0.367,0.367,0.367,0.367,0.367,0.368,0.368,0.368,0.368,0.368,0.369,0.369,0.369,0.369,0.369,0.369,0.369,0.369,0.369,0.369,0.369,0.37,0.37,0.37,0.37,0.37,0.371,0.371,0.371,0.372,0.372,0.372,0.373,0.373,0.373,0.373,0.373,0.373,0.374,0.374,0.374,0.374,0.374,0.375,0.375,0.375,0.375,0.375,0.376,0.376,0.376,0.376,0.376,0.377,0.377,0.377,0.377,0.377,0.377,0.377,0.377,0.377,0.377,0.377,0.377,0.378,0.378,0.378,0.378,0.378,0.378,0.379,0.379,0.379,0.38,0.38,0.38,0.38,0.38,0.38,0.381,0.381,0.381,0.381,0.381,0.381,0.381,0.382,0.382,0.382,0.382,0.382,0.382,0.382,0.383,0.383,0.383,0.383,0.383,0.384,0.384,0.384,0.384,0.385,0.385,0.385,0.385,0.385,0.386,0.386,0.386,0.386,0.387,0.387,0.387,0.387,0.388,0.388,0.388,0.388,0.388,0.388,0.388,0.388,0.388,0.387,0.387,0.388,0.388,0.388,0.388,0.389,0.389,0.389,0.389,0.39,0.39,0.39,0.391,0.391,0.392,0.392,0.393,0.394,0.394,0.395,0.396,0.397,0.397,0.398,0,0,0,0,0,0.434,0.435,0.435,0.435,0.436,0.436,0.436,0.436,0.437,0.437,0.438,0.438,0.438,0.438,0.438,0.438,0.439,0.439,0.439,0.439,0.439,0.439,0.44,0.44,0.44,0.44,0.441,0.441,0.441,0.441,0.441,0.442,0.442,0.442,0.442,0.442,0.442,0.442,0.442,0.442,0.442,0.442,0.443,0.442,0.442,0.441,0.44,0.439,0.438,0.437,0.435,0.434,0.432,0.431,0.43,0.429,0.428,0.427,0.426,0.425,0.425,0.424,0.423,0.422,0.421,0.42,0.419,0.419,0.418,0.417,0.416,0.416,0.415,0.414,0.414,0.413,0.412,0.412,0.411,0.411,0.41,0.41,0.41,0.409,0.409,0.409,0.409,0.408,0.408,0.407,0,0,0,0,0,0,0,0,0,0,0,0,0,0,0,0,0,0,0,0,0,0,0,0,0,0,0,0,0,0,0,0,0,0,0,0,0,0,0,0,0,0,0,0,0,0,0,0.21,0.209,0.209,0.209,0.208,0.208,0.207,0,0.206,0.206,0.205,0.205,0.204,0.203,0.203,0.202,0.202,0.201,0.201,0.2,0.2,0.199,0.199,0.198,0.197,0.197,0.196,0.196,0.196,0.195,0.195,0.195,0.194,0.194,0.193,0.193,0.192,0.192,0.192,0.192,0.191,0.191,0.191,0.191,0.19,0.19,0.19,0.19,0.189,0.189,0.189,0.189,0.189,0.189,0.188,0.188,0.188,0.188,0.188,0.188,0.187,0.187,0.187,0.187,0.187,0.187,0.187,0.186,0.186,0.186,0.186,0.186,0.186,0.186,0.186,0.186
0.374,0.374,0.375,0.375,0.375,0.375,0.375,0.375,0.375,0.375,0.376,0.376,0.376,0.376,0.376,0.376,0.377,0.377,0.377,0.377,0.378,0.378,0.378,0.378,0.378,0.379,0.379,0.379,0.379,0.38,0.38,0.38,0.38,0.381,0.381,0.381,0.381,0.381,0.381,0.381,0.381,0.381,0.381,0.381,0.381,0.381,0.382,0.382,0.382,0.382,0.382,0.382,0.382,0.383,0.383,0.383,0.383,0.383,0.383,0.383,0.383,0.383,0.383,0.383,0.383,0.383,0.382,0.382,0.382,0.382,0.381,0.381,0.381,0.381,0.38,0,0,0,0,0.351,0.35,0.35,0.35,0.35,0.349,0.349,0.349,0.349,0.349,0.349,0.35,0.35,0.35,0.35,0.35,0.35,0.35,0.35,0.35,0.35,0.35,0.35,0.35,0.35,0.351,0.351,0.351,0.351,0.352,0.352,0.352,0.352,0.353,0.353,0.353,0.353,0.353,0.353,0.354,0.354,0.354,0.354,0.354,0.355,0.355,0.355,0.355,0.355,0.355,0.355,0.356,0.356,0.356,0.356,0.356,0.356,0.356,0.356,0.356,0.356,0.356,0.356,0.357,0.357,0.357,0.357,0.357,0.357,0.357,0.357,0.358,0.358,0.358,0.358,0.358,0.358,0.359,0.359,0.359,0.359,0.359,0.359,0.359,0.36,0.36,0.36,0.36,0.361,0.361,0.361,0.361,0.361,0.361,0.362,0.362,0.362,0.363,0.363,0.363,0.363,0.363,0.363,0.363,0.364,0.364,0.364,0.364,0.364,0.364,0.364,0.364,0.365,0.365,0.365,0.365,0.365,0.365,0.365,0,0,0.366,0.366,0.366,0.366,0.366,0.367,0.367,0.367,0.367,0.367,0.367,0.367,0.368,0.368,0.368,0.368,0.368,0.368,0.369,0.369,0.369,0.369,0.369,0.369,0.369,0.369,0.369,0.369,0.37,0.37,0.371,0.371,0.371,0.371,0.371,0.372,0.372,0.372,0.372,0.372,0.372,0.373,0.373,0,0.373,0.374,0.374,0.374,0.374,0.374,0.374,0.375,0.375,0.375,0.376,0.376,0.376,0.376,0.376,0.376,0.376,0.376,0.376,0.376,0.376,0.376,0.376,0.377,0.377,0.377,0.377,0.377,0.377,0.378,0.378,0.378,0.378,0.379,0.379,0.379,0.379,0.38,0.38,0.38,0.38,0.38,0.38,0.38,0.38,0.381,0.381,0.381,0.381,0.381,0.381,0.382,0.382,0.382,0.382,0.382,0.383,0.383,0.383,0.383,0.383,0.384,0.384,0.384,0.384,0.385,0.385,0.385,0.385,0.385,0.385,0.386,0.386,0.386,0.386,0.387,0.387,0.387,0.387,0.387,0.387,0.387,0.387,0.386,0.386,0.386,0.386,0.386,0.387,0.387,0.387,0.388,0.388,0.388,0.389,0.389,0.39,0.39,0.391,0.391,0.392,0.393,0.393,0.394,0.395,0.396,0.397,0.397,0.399,0.403,0,0,0.426,0,0.433,0.434,0.434,0.435,0.435,0.435,0.435,0.436,0.436,0.436,0.436,0.437,0.437,0.437,0.437,0.437,0.438,0.438,0.438,0.438,0.439,0.439,0.439,0.439,0.439,0.439,0.44,0.44,0.44,0.44,0.44,0.441,0.441,0.441,0.441,0.441,0.441,0.441,0.441,0.441,0.441,0.441,0.442,0.442,0.441,0.441,0.44,0.439,0.438,0.436,0.435,0.433,0.432,0.431,0.43,0.428,0.428,0.427,0.426,0.425,0.424,0.423,0.423,0.422,0.421,0.42,0.419,0.418,0.417,0.417,0.416,0.415,0.415,0.414,0.413,0.413,0.412,0.411,0.411,0.41,0.41,0.409,0.409,0.409,0.408,0.408,0.408,0.408,0.407,0.407,0,0,0,0,0,0,0,0,0,0,0,0,0,0,0,0,0,0,0,0,0,0,0,0,0,0,0,0,0,0,0,0,0,0,0,0,0,0,0,0,0,0,0,0,0,0,0,0.21,0.209,0.209,0.209,0.209,0.208,0.208,0.207,0.207,0.206,0.205,0.205,0.204,0.204,0.203,0.203,0.202,0.202,0.201,0.201,0.2,0.199,0.199,0.198,0.198,0.197,0.197,0.196,0.196,0.196,0.195,0.195,0.194,0.194,0.194,0.193,0.193,0.192,0.192,0.192,0.191,0.191,0.191,0.191,0.19,0.19,0.19,0.19,0.189,0.189,0.189,0.189,0.189,0.189,0.188,0.188,0.188,0.188,0.188,0.187,0.187,0.187,0.187,0.187,0.187,0.187,0.186,0.186,0.186,0.186,0.186,0.186,0.186,0.186,0.186,0.185
0.374,0.374,0.374,0.374,0.374,0.374,0.374,0.374,0.374,0.375,0.375,0.375,0.375,0.375,0.376,0.376,0.376,0.376,0.376,0.377,0.377,0.377,0.377,0.377,0.378,0.378,0.378,0.378,0.379,0.379,0.379,0.38,0.38,0.38,0.38,0.38,0.38,0.38,0.38,0.38,0.38,0.38,0.381,0.381,0.381,0.381,0.381,0.381,0.381,0.381,0.381,0.382,0.382,0.382,0.382,0.382,0.382,0.383,0.383,0.383,0.383,0.383,0.383,0.383,0.382,0.382,0.382,0.382,0.382,0.382,0.381,0.381,0.381,0.38,0,0,0,0,0,0.352,0.35,0.35,0.35,0.35,0.349,0.349,0.349,0.349,0.349,0.349,0.349,0.349,0.349,0.349,0.349,0.349,0.349,0.349,0.35,0.35,0.35,0.35,0.35,0.35,0.35,0.35,0.35,0.351,0.351,0.351,0.352,0.352,0.352,0.352,0.352,0.352,0.353,0.353,0.353,0.353,0.353,0.354,0.354,0.354,0.354,0.354,0.354,0.355,0.354,0.355,0.355,0.355,0.355,0.355,0.355,0.355,0.355,0.355,0.355,0.355,0.356,0.356,0.356,0.356,0.356,0.356,0.356,0.356,0.357,0.357,0.357,0.357,0.357,0.357,0.357,0.358,0.358,0.358,0.358,0.358,0.358,0.359,0.359,0.359,0.359,0.359,0.36,0.36,0.36,0.36,0.36,0.36,0.361,0.361,0.361,0.361,0.362,0.362,0.362,0.362,0.363,0.363,0.363,0.363,0.363,0.363,0.363,0.363,0.363,0.363,0.364,0.364,0.364,0.364,0.364,0.364,0.364,0.364,0.364,0,0.365,0.365,0.365,0.365,0.366,0.366,0.366,0.366,0.366,0.367,0.367,0.367,0.367,0.367,0.367,0.367,0.367,0.367,0.368,0.368,0.368,0.368,0.368,0.368,0.369,0.369,0.369,0.369,0.369,0.37,0.37,0.37,0.371,0.371,0.371,0.371,0.371,0.371,0.371,0.371,0.371,0.372,0.372,0.372,0.373,0.373,0.373,0.373,0.373,0.374,0.374,0.374,0.374,0.374,0.375,0.375,0.375,0.375,0.375,0.375,0.375,0.376,0.376,0.376,0.376,0.376,0.376,0.376,0.376,0.376,0.376,0.376,0.376,0.377,0.377,0.377,0.378,0.378,0.378,0.378,0.379,0.379,0.379,0.379,0.379,0.38,0.38,0.38,0.38,0.38,0.38,0.38,0.38,0.38,0.38,0.381,0.381,0.381,0.381,0.382,0.382,0.382,0.382,0.383,0.383,0.383,0.383,0.383,0.384,0.384,0.384,0.384,0.384,0.384,0.385,0.385,0.385,0.385,0.385,0.385,0.386,0.386,0.386,0.386,0.386,0.385,0.385,0.385,0.385,0.385,0.385,0.385,0.386,0.386,0.386,0.387,0.387,0.387,0.388,0.388,0.389,0.389,0.39,0.39,0.391,0.392,0.393,0.394,0.395,0.396,0.397,0.398,0.402,0.406,0,0,0,0.429,0.432,0.433,0.433,0.434,0.434,0.434,0.434,0.434,0.435,0.435,0.435,0.435,0.436,0.436,0.436,0.436,0.437,0.437,0.437,0.437,0.438,0.438,0.438,0.438,0.439,0.439,0.439,0.439,0.439,0.439,0.439,0.439,0.439,0.44,0.44,0.44,0.44,0.44,0.44,0.44,0.44,0.44,0.441,0.441,0.44,0.44,0.439,0.439,0.437,0.436,0.435,0.433,0.432,0.431,0.429,0.428,0.428,0.427,0.426,0.425,0.424,0.423,0.422,0.422,0.421,0.42,0.419,0.418,0.417,0.416,0.415,0.415,0.414,0.413,0.413,0.412,0.412,0.411,0.41,0.41,0.409,0.409,0.409,0.408,0.408,0.407,0.407,0.407,0.407,0.406,0.406,0,0,0,0,0,0,0,0,0,0,0,0,0,0,0,0,0,0,0,0,0,0,0,0,0,0,0,0,0,0,0,0,0,0,0,0,0,0,0,0,0,0,0,0,0,0,0.21,0.209,0.209,0.209,0.209,0.208,0.208,0.207,0.207,0.206,0.206,0.205,0.205,0.204,0.203,0.203,0.203,0.202,0.201,0.201,0.2,0.2,0.199,0.198,0.198,0.197,0.197,0.197,0.196,0.196,0.195,0.195,0.195,0.194,0.194,0.193,0.193,0.192,0.192,0.192,0.191,0.191,0.191,0.191,0.19,0.19,0.19,0.19,0.189,0.189,0.189,0.189,0.189,0.188,0.188,0.188,0.188,0.188,0.188,0.187,0.187,0.187,0.187,0.187,0.187,0.186,0.186,0.186,0.186,0.186,0.186,0.186,0.186,0.186,0.185,0.185
0.373,0.373,0.373,0.373,0.373,0.373,0.373,0,0,0,0,0.375,0.375,0.375,0.375,0.375,0.376,0.376,0.376,0.376,0.376,0.376,0.376,0.377,0.377,0.377,0.378,0.378,0.378,0.378,0.379,0.379,0.379,0.379,0.379,0.38,0.38,0.38,0.38,0.38,0.38,0.38,0.38,0.38,0.38,0.38,0.38,0.38,0.38,0.381,0.381,0.381,0.381,0.381,0.381,0.381,0.382,0.382,0.382,0.382,0.382,0.382,0.382,0.382,0.382,0.382,0.382,0.381,0.381,0.381,0.381,0.381,0.381,0,0,0,0,0,0,0,0.35,0.35,0.349,0.349,0.349,0.349,0.348,0.348,0.348,0.348,0.349,0.349,0.349,0.349,0.349,0.349,0.349,0.349,0.349,0.349,0.349,0.349,0.349,0.349,0.349,0.35,0.35,0.35,0.35,0.351,0.351,0.351,0.351,0.352,0.352,0.352,0.352,0.352,0.352,0.353,0.353,0.353,0.353,0.353,0.353,0.354,0.354,0.354,0.354,0.354,0.354,0.354,0.354,0.354,0.354,0.354,0.354,0.354,0.354,0.354,0.355,0.355,0.355,0.355,0.355,0.356,0.356,0.356,0.356,0.356,0.356,0.356,0.356,0.357,0.357,0.357,0.357,0.357,0.358,0.358,0.358,0.358,0.358,0.358,0.358,0.359,0.359,0.359,0.359,0.359,0.359,0.359,0.36,0.36,0.36,0.36,0.361,0.361,0.361,0.362,0.362,0.362,0.362,0.362,0.362,0.362,0.362,0.362,0.362,0.363,0.363,0.363,0.363,0.363,0.363,0.363,0.363,0.364,0.364,0.364,0.364,0.364,0.364,0.364,0.365,0.365,0.365,0.366,0.366,0.366,0.366,0.366,0.366,0.366,0.367,0.367,0.367,0.367,0.367,0.367,0.367,0.367,0.367,0.368,0.368,0.368,0.368,0.368,0.369,0.369,0.369,0.37,0.37,0.37,0.37,0.371,0.371,0.371,0.371,0.371,0.371,0.371,0.371,0.372,0.372,0.372,0.372,0.372,0.372,0.373,0.373,0.373,0.373,0.373,0.374,0.374,0.374,0.374,0.374,0.374,0.375,0.375,0.375,0.375,0.375,0.375,0.375,0.375,0.375,0.375,0.375,0.376,0.376,0.376,0.376,0.376,0.377,0.377,0.377,0.378,0.378,0.378,0.378,0.378,0.379,0.379,0.379,0.379,0.379,0.379,0.379,0.38,0.38,0.38,0.38,0.38,0.38,0.38,0.38,0.381,0.381,0.381,0.382,0.382,0.382,0.382,0.382,0.383,0.383,0.383,0.383,0.383,0.384,0.384,0.384,0.384,0.384,0.384,0.385,0.385,0.385,0.385,0.385,0.385,0.385,0.385,0.385,0.385,0.384,0.384,0.384,0.385,0.385,0.385,0.385,0.386,0.386,0.386,0.387,0.387,0.388,0.388,0.389,0.39,0.391,0.392,0.393,0.395,0.396,0.397,0.398,0.399,0.402,0.406,0.411,0,0.422,0.427,0.431,0.432,0.432,0.433,0.433,0.433,0.433,0.434,0.434,0.434,0.434,0.434,0.435,0.435,0.435,0.435,0.435,0.436,0.436,0.436,0.437,0.437,0.437,0.437,0.438,0.438,0.438,0.438,0.438,0.438,0.439,0.439,0.439,0.439,0.439,0.439,0.439,0.439,0.439,0.439,0.439,0.439,0.44,0.44,0.439,0.439,0.439,0.438,0.437,0.435,0.434,0.433,0.431,0.431,0.429,0.428,0.427,0.426,0.425,0.425,0.424,0.423,0.422,0.421,0.421,0.42,0.419,0.418,0.417,0.416,0.415,0.415,0.414,0.413,0.412,0.412,0.411,0.41,0.41,0.409,0.409,0.408,0.408,0.408,0.407,0.407,0.407,0.407,0.406,0.406,0.406,0.406,0.405,0,0,0,0,0,0,0,0,0,0,0,0,0,0,0,0,0,0,0,0,0,0,0,0,0,0,0,0,0,0,0,0,0,0,0,0,0,0,0,0,0,0,0,0,0,0.209,0.209,0.209,0.209,0.208,0.208,0.207,0.207,0.206,0.206,0,0,0.204,0.204,0.203,0.203,0.202,0.202,0.201,0.201,0.2,0.199,0.199,0.198,0.198,0.197,0.197,0.196,0.196,0.196,0.195,0.195,0.195,0.194,0.193,0.193,0.193,0.192,0.192,0.191,0.191,0.191,0.191,0.19,0.19,0.19,0.19,0.19,0.189,0.189,0.189,0.189,0.188,0.188,0.188,0.188,0.188,0.187,0.187,0.187,0.187,0.187,0.187,0.186,0.186,0.186,0.186,0.186,0.186,0.186,0.186,0.186,0.185,0.185,0.185
0.372,0.372,0.372,0.372,0.372,0.372,0.373,0.373,0.373,0.373,0.374,0.374,0.374,0.374,0.375,0.375,0.375,0.375,0.375,0.376,0.376,0.376,0.376,0.376,0.376,0.376,0.377,0.377,0.377,0.377,0.378,0.378,0.378,0.379,0.378,0.379,0.379,0.379,0.379,0.379,0.379,0.379,0.379,0.379,0.38,0.38,0.38,0.38,0.38,0.38,0.38,0.38,0.38,0.38,0.381,0.381,0.381,0.381,0.381,0.381,0.382,0.382,0.382,0.382,0.382,0.382,0.382,0.381,0.381,0.381,0.381,0.38,0.38,0,0,0,0,0,0,0,0,0.349,0.349,0.349,0.349,0.348,0.348,0.348,0.348,0.348,0.348,0.348,0.348,0.349,0.349,0.349,0.349,0.349,0.349,0.349,0.348,0.348,0.348,0.348,0.349,0.349,0.349,0.349,0.35,0.35,0.35,0.35,0.351,0.351,0.351,0.351,0.351,0.352,0.352,0.352,0.352,0.352,0.353,0.353,0.353,0.353,0.353,0.353,0.353,0.353,0.353,0.353,0.353,0.353,0.353,0.353,0.353,0.354,0.354,0.354,0.354,0.354,0.354,0.354,0.355,0.355,0.355,0.355,0.355,0.355,0.355,0.356,0.356,0.356,0.356,0.356,0.356,0.357,0.357,0.357,0.357,0.357,0.358,0.358,0.358,0.358,0.358,0.358,0.358,0.358,0.358,0.358,0.359,0.359,0.359,0.36,0.36,0.36,0.36,0.361,0.361,0.361,0.361,0.361,0.361,0.361,0.361,0.362,0.362,0.362,0.362,0.362,0.363,0.363,0.363,0.363,0.363,0.363,0.363,0.363,0.363,0.363,0.364,0.364,0.364,0.364,0.365,0.365,0.365,0.365,0.365,0.366,0.366,0.366,0.366,0.366,0.366,0.366,0.366,0.367,0.367,0.367,0.367,0.367,0.367,0.368,0.368,0.368,0.368,0.369,0.369,0.369,0.369,0.369,0.37,0.37,0.37,0.37,0.37,0.37,0.37,0.37,0.37,0.371,0.371,0.371,0.371,0.371,0.372,0.372,0.372,0.372,0.372,0.373,0.373,0.373,0.373,0.373,0.373,0.374,0.374,0.374,0.374,0.374,0.374,0.374,0.374,0.374,0.375,0.375,0.375,0.375,0.375,0.375,0.376,0.376,0.376,0.376,0.377,0.377,0.377,0.377,0.378,0.378,0.378,0.378,0.378,0.378,0.378,0.378,0.379,0.379,0.379,0.379,0.379,0.379,0.38,0.38,0.38,0.38,0.38,0.381,0.381,0.381,0.381,0.381,0.382,0.382,0.382,0.382,0.382,0.382,0.383,0.383,0.383,0.383,0.383,0.384,0.384,0.384,0.384,0.384,0.384,0.384,0.384,0.384,0.384,0.384,0.384,0.384,0.384,0.384,0.384,0.384,0.384,0.385,0.385,0.385,0.386,0.386,0.387,0.388,0.389,0.39,0.391,0.392,0.393,0.395,0.396,0.397,0.398,0.4,0.404,0.408,0.413,0,0.422,0.426,0.431,0.431,0.432,0.432,0.432,0.432,0.433,0.433,0.433,0.433,0.433,0.434,0.434,0.434,0.434,0.434,0.434,0.435,0.435,0.435,0.436,0.436,0.436,0.436,0.437,0.437,0.437,0.437,0.437,0.437,0.438,0.438,0.438,0.438,0.438,0.438,0.438,0.438,0.438,0.438,0.438,0.439,0.439,0.439,0.439,0.439,0.438,0.437,0.436,0.435,0.434,0.433,0.431,0.43,0.429,0.428,0.427,0.426,0.425,0.424,0.423,0.423,0.422,0.421,0.42,0.419,0.419,0.418,0.417,0.416,0.415,0.414,0.413,0.413,0.412,0.411,0.411,0.41,0.409,0.409,0.408,0.408,0.407,0.407,0.407,0.407,0.406,0.406,0.406,0.406,0.406,0.405,0.405,0,0,0,0,0,0,0,0,0,0,0,0,0,0,0,0,0,0,0,0,0,0,0,0,0,0,0,0,0,0,0,0,0,0,0,0,0,0,0,0,0,0,0,0,0,0.209,0.209,0.209,0.209,0.208,0.208,0.208,0.207,0.206,0.206,0.205,0.205,0.204,0.204,0.203,0.203,0.203,0.202,0.201,0.201,0.2,0.2,0.199,0.198,0.198,0.197,0.197,0.197,0.196,0.196,0.196,0.195,0.195,0.194,0.194,0.193,0.193,0.192,0.192,0.191,0.191,0.191,0.191,0.19,0.19,0.19,0.19,0.19,0.189,0.189,0.189,0.189,0.188,0.188,0.188,0.188,0.188,0.187,0.187,0.187,0.187,0.187,0.187,0.186,0.186,0.186,0.186,0.186,0.186,0.186,0.186,0.186,0.185,0.185,0.185
0.371,0.371,0.371,0.371,0.371,0.372,0.372,0.372,0.372,0.373,0.373,0.373,0.374,0.374,0.374,0.374,0.374,0.375,0.375,0.375,0.375,0.375,0.375,0.376,0.375,0.376,0.376,0.376,0.376,0.377,0.377,0.377,0.378,0.378,0.378,0.378,0.378,0.378,0.378,0.378,0.378,0.378,0.378,0.379,0.379,0.379,0.379,0.379,0.379,0.379,0.379,0.38,0.38,0.38,0.38,0.38,0.38,0.381,0.381,0.381,0.381,0.381,0.381,0.381,0.381,0.381,0.381,0.381,0.381,0.38,0.38,0.38,0.38,0.38,0.38,0,0,0,0,0.351,0,0.349,0.349,0.349,0.348,0.348,0.348,0.348,0.348,0.348,0.348,0.348,0.348,0.348,0.348,0.348,0.348,0.348,0.348,0.348,0.348,0.348,0.348,0.348,0.348,0.348,0.349,0.349,0.349,0.349,0.349,0.35,0.35,0.35,0.35,0.351,0.351,0.351,0.351,0.351,0.352,0.352,0.352,0.352,0.352,0.352,0.352,0.353,0.352,0.353,0.352,0.353,0.352,0.352,0.352,0.352,0.353,0.353,0.353,0.353,0.353,0.353,0.354,0.354,0.354,0.354,0.354,0.354,0.354,0.355,0.355,0.355,0.355,0.355,0.355,0.355,0.356,0.356,0.356,0.356,0.357,0.357,0.357,0.357,0.357,0.357,0.357,0.358,0.357,0.358,0.358,0.358,0.358,0.358,0.358,0.358,0.359,0.359,0.36,0.36,0.36,0.36,0.361,0.361,0.361,0.361,0.361,0.361,0.361,0.361,0.361,0.362,0.362,0.362,0.362,0.362,0.362,0.362,0.362,0.362,0.363,0.363,0.363,0.363,0.364,0.364,0.364,0.364,0.364,0.364,0.364,0.365,0.365,0.365,0.365,0.365,0.365,0.366,0.366,0.366,0.366,0.366,0.366,0.366,0.367,0.367,0.367,0.367,0.368,0.368,0.368,0.369,0.369,0.369,0.369,0.369,0.369,0.369,0.369,0.369,0.369,0.369,0.37,0.37,0.37,0.37,0.371,0.371,0.371,0.371,0.371,0.372,0.372,0.372,0.372,0.372,0.372,0.372,0.372,0.373,0.373,0.373,0.373,0.373,0.373,0.374,0.374,0.374,0.374,0.374,0.374,0.374,0.374,0.375,0.375,0.375,0.376,0.376,0.376,0.376,0.376,0.377,0.377,0.377,0.377,0.377,0.377,0.377,0.377,0.378,0.378,0.378,0.378,0.378,0.378,0.379,0.379,0.379,0.379,0.38,0.38,0.38,0.38,0.38,0.38,0.381,0.381,0.381,0.381,0.381,0.382,0.382,0.382,0.382,0.382,0.382,0.382,0.383,0.383,0.383,0.383,0.383,0.383,0.383,0.383,0.383,0.383,0.383,0.383,0.383,0.383,0.383,0.383,0.384,0.384,0.384,0.384,0.385,0.385,0.386,0.387,0.388,0.389,0.39,0.391,0.392,0.394,0.395,0.397,0.398,0.399,0.401,0.405,0.409,0,0,0.422,0.426,0.43,0.431,0.431,0.431,0.431,0.431,0.431,0.432,0.432,0.432,0.432,0.433,0.433,0.433,0.434,0.434,0.434,0.434,0.434,0.434,0.435,0.435,0.435,0.435,0.436,0.436,0.436,0.436,0.436,0.436,0.437,0.437,0.437,0.437,0.437,0.437,0.437,0.437,0.437,0.437,0.437,0.437,0.438,0.438,0.438,0.438,0.437,0.437,0.436,0.435,0.434,0.433,0.431,0.43,0.428,0.428,0.427,0.426,0.425,0.424,0.423,0.422,0.422,0.421,0.42,0.419,0.418,0.417,0.417,0.416,0.415,0.414,0.413,0.413,0.412,0.411,0.41,0.41,0.409,0.409,0.408,0.407,0.407,0.407,0.406,0.406,0.406,0.406,0.405,0.405,0.405,0.404,0.404,0,0,0,0,0,0,0,0,0,0,0,0,0,0,0,0,0,0,0,0,0,0,0,0,0,0,0,0,0,0,0,0,0,0,0,0,0,0,0,0,0,0,0,0,0,0,0.209,0.209,0.209,0.208,0.208,0.208,0.207,0.207,0.206,0.205,0.205,0.204,0.204,0.203,0.203,0.203,0.202,0.202,0.201,0.2,0.2,0.199,0.199,0.198,0.198,0.197,0.197,0.197,0.196,0.196,0.196,0.195,0.195,0.194,0.193,0.193,0.192,0.192,0.191,0.191,0.191,0.191,0.191,0.19,0.19,0.19,0.19,0.19,0.189,0.189,0.189,0.188,0.188,0.188,0.188,0.188,0.187,0.187,0.187,0.187,0.187,0.187,0.186,0.186,0.186,0.186,0.186,0.186,0.186,0.186,0.185,0.185,0.185,0.185
0.371,0.371,0.371,0.371,0.371,0.371,0.371,0.371,0.372,0.372,0.372,0.373,0.373,0.373,0.373,0.374,0.374,0.374,0.374,0.374,0.374,0.374,0.375,0.375,0.375,0.375,0.375,0.375,0.376,0.376,0.376,0.376,0.377,0.377,0.377,0.377,0.377,0.377,0.377,0.377,0.377,0.377,0.378,0.378,0.378,0.378,0.378,0.378,0.378,0.379,0.379,0.379,0.379,0.379,0.379,0.38,0.38,0.38,0.38,0.38,0.38,0.381,0.381,0.381,0.381,0.381,0.38,0.38,0.38,0.38,0.38,0.38,0.38,0.38,0.38,0.378,0,0,0,0,0.349,0.349,0.348,0.348,0.348,0.348,0.347,0.347,0.347,0.347,0.347,0.348,0.347,0.348,0.347,0.347,0.347,0.347,0.347,0.347,0.347,0.347,0.347,0.347,0.347,0.348,0.348,0.348,0.348,0.348,0.349,0.349,0.349,0.35,0.35,0.35,0.35,0.35,0.351,0.351,0.351,0.351,0.351,0.351,0.351,0.351,0.352,0.352,0.352,0.352,0.352,0.352,0.352,0.352,0.352,0.352,0.352,0.352,0.352,0.352,0.353,0.353,0.353,0.353,0.353,0.353,0.353,0.354,0.354,0.354,0.354,0.354,0.354,0.354,0.355,0.355,0.355,0.355,0.356,0.356,0.356,0.356,0.356,0.357,0.357,0.357,0.357,0.357,0.357,0.357,0.357,0.357,0.357,0.357,0.357,0.358,0.358,0.358,0.359,0.359,0.36,0.36,0.36,0.36,0.36,0.36,0.36,0.36,0.361,0.361,0.361,0.361,0.361,0.361,0.361,0.361,0.361,0.362,0.362,0.362,0.362,0.362,0.362,0.363,0.363,0.363,0.363,0.363,0.363,0.363,0.364,0.364,0.364,0.364,0.364,0.364,0.364,0.365,0.365,0.365,0.365,0.366,0.366,0.366,0.366,0.366,0.366,0.367,0.367,0.367,0.368,0.368,0.368,0.368,0.368,0.369,0.369,0.369,0.369,0.369,0.369,0.369,0.369,0.369,0.369,0.37,0.37,0.37,0.37,0.371,0.371,0.371,0.371,0.371,0.371,0.371,0.371,0.371,0.371,0.372,0.372,0.372,0.372,0.372,0.373,0.373,0.373,0.373,0.373,0.373,0.373,0.374,0.374,0.374,0.374,0.374,0.375,0.375,0.375,0.376,0.376,0.376,0.376,0.376,0.376,0.376,0.376,0.376,0.376,0.377,0.377,0.377,0.377,0.377,0.378,0.378,0.378,0.378,0.379,0.379,0.379,0.379,0.38,0.38,0.38,0.38,0.38,0.381,0.38,0.381,0.381,0.381,0.381,0.381,0.381,0.381,0.381,0.382,0.382,0.382,0.382,0.382,0.382,0.382,0.382,0.382,0.382,0.382,0.382,0.382,0.382,0.382,0.382,0.383,0.383,0.383,0.384,0.384,0.385,0.385,0.386,0.387,0.389,0.39,0.392,0.393,0.395,0.396,0.398,0.399,0.4,0.403,0.406,0.41,0,0.419,0.422,0.426,0.429,0.43,0.43,0.43,0.43,0.431,0.431,0.431,0.431,0.431,0.432,0.432,0.432,0.432,0.433,0.433,0.433,0.433,0.434,0.434,0.434,0.434,0.434,0.434,0.434,0.435,0.435,0.435,0.435,0.435,0.436,0.436,0.436,0.436,0.436,0.436,0.436,0.436,0.436,0.436,0.436,0.436,0.437,0.437,0.437,0.437,0.437,0.436,0.435,0.434,0.434,0.433,0.431,0.43,0.428,0.427,0.426,0.425,0.425,0.424,0.423,0.422,0.421,0.421,0.42,0.419,0.418,0.417,0.417,0.416,0.415,0.414,0.413,0.413,0.412,0.411,0.41,0.41,0.409,0.408,0.408,0.407,0.407,0.406,0.406,0.406,0.406,0.405,0.405,0.404,0.404,0.404,0.404,0.403,0,0,0,0,0,0,0,0,0,0,0,0,0,0,0,0,0,0,0,0,0,0,0,0,0,0,0,0,0,0,0,0,0,0,0,0,0,0,0,0,0,0,0,0,0,0,0,0.209,0.208,0.208,0.208,0.207,0.207,0.206,0.206,0.205,0.205,0.204,0.204,0.203,0.203,0.202,0.202,0.201,0.201,0.2,0.199,0.199,0.198,0.198,0.198,0.197,0.197,0.197,0.196,0.196,0.195,0.195,0,0.194,0.193,0.193,0.192,0.192,0.191,0.191,0.191,0.191,0.19,0.19,0.19,0.19,0.19,0.189,0.189,0.189,0.189,0.188,0.188,0.188,0.188,0.187,0.187,0.187,0.187,0.187,0.186,0.186,0.186,0.186,0.186,0.186,0.186,0.186,0.185,0.185,0.185,0.185,0.185
0.37,0.37,0.37,0.37,0.37,0.371,0.371,0.371,0.371,0.371,0.372,0.372,0.372,0.372,0.373,0.373,0.373,0.373,0.374,0.374,0.374,0.374,0.374,0.374,0.374,0.374,0.375,0.375,0.375,0.375,0.375,0.376,0.376,0.376,0.376,0.376,0.376,0.376,0.376,0.376,0.376,0.377,0.377,0.377,0.377,0.377,0.377,0.377,0.378,0.378,0.378,0.378,0.378,0.378,0.379,0.379,0.379,0.38,0.38,0.38,0.38,0.38,0.38,0.38,0.38,0.38,0.38,0.38,0.38,0.38,0.38,0.38,0,0,0,0,0,0,0,0,0,0.348,0.348,0.348,0.348,0.347,0.347,0.347,0.347,0.347,0.347,0.347,0.347,0.347,0.347,0.347,0.347,0.347,0.347,0.347,0.347,0.347,0.347,0.347,0.347,0.347,0.347,0.347,0.348,0.348,0.348,0.348,0.349,0.349,0.349,0.349,0.35,0.35,0.35,0.35,0.35,0.35,0.351,0.35,0.351,0.351,0.351,0.351,0.351,0.351,0.351,0.351,0.351,0.351,0.351,0.351,0.351,0.351,0.351,0.352,0.352,0.352,0.352,0.352,0.352,0.352,0.353,0.353,0.353,0.353,0.353,0.354,0.354,0.354,0.354,0.354,0.354,0.355,0.355,0.355,0.355,0.355,0.356,0.356,0.356,0.356,0.356,0.356,0.356,0.356,0.356,0.356,0.356,0.357,0.357,0.357,0.357,0.358,0.358,0.358,0.359,0.359,0.359,0.36,0.36,0.36,0.36,0.36,0.36,0.36,0.36,0.361,0.361,0.361,0.361,0.361,0.361,0.361,0.361,0.361,0.361,0.361,0.362,0.362,0.362,0.362,0.362,0.363,0.363,0.363,0.363,0.363,0.363,0.363,0.363,0.364,0.364,0.364,0.364,0.364,0.364,0.365,0.365,0.365,0.365,0.366,0.366,0.366,0.367,0.367,0.367,0.367,0.367,0.367,0.368,0.368,0.368,0.368,0.368,0.368,0.368,0.368,0.369,0.369,0.369,0.369,0.369,0.369,0.369,0.37,0.37,0.37,0.37,0.37,0.37,0.37,0.371,0.371,0.371,0.371,0.371,0.371,0.371,0.371,0.371,0.372,0.372,0.372,0.372,0.373,0.373,0.373,0.373,0.373,0.374,0.374,0.374,0.374,0.375,0.375,0.375,0.375,0.375,0.375,0.375,0.376,0.376,0.376,0.376,0.376,0.376,0.376,0.376,0.377,0.377,0.377,0.377,0.378,0.378,0.378,0.378,0.379,0.379,0.379,0.379,0.38,0.38,0.38,0.38,0.38,0.38,0.38,0.38,0.38,0.381,0.381,0.381,0.381,0.381,0.381,0.381,0.381,0.381,0.381,0.381,0.381,0.382,0.382,0.382,0.382,0.382,0.382,0.382,0.382,0.382,0.383,0.383,0.384,0.385,0.385,0.386,0.387,0.389,0.39,0.392,0.394,0.396,0.397,0.399,0.401,0.402,0.405,0.409,0.412,0,0.419,0.422,0.425,0.428,0.429,0.429,0.429,0.429,0.43,0.43,0.43,0.43,0.431,0.431,0.431,0.431,0.432,0.432,0.432,0.432,0.432,0.433,0.433,0.433,0.433,0.433,0.433,0.434,0.434,0.434,0.434,0.434,0.434,0.434,0.435,0.435,0.435,0.435,0.435,0.435,0.435,0.435,0.435,0.435,0.436,0.435,0.436,0.436,0.436,0.436,0.435,0.435,0.434,0.434,0.432,0.431,0.43,0.428,0.428,0.426,0.425,0.424,0.423,0.423,0.422,0.421,0.421,0.42,0.419,0.418,0.417,0.417,0.416,0.415,0.414,0.413,0.413,0.412,0.411,0.41,0.409,0.409,0.408,0.407,0.407,0.406,0.406,0.406,0.405,0.405,0.404,0.404,0.404,0.404,0.404,0.403,0.403,0.403,0.403,0.402,0,0,0,0,0,0,0,0,0,0,0,0,0,0,0,0,0,0,0,0,0,0,0,0,0,0,0,0,0,0,0,0,0,0,0,0,0,0,0,0,0,0,0,0,0,0,0,0,0,0,0,0,0.205,0.205,0.204,0.204,0.203,0.203,0.203,0.202,0.201,0.201,0.2,0.2,0.199,0.199,0.198,0.198,0.197,0.197,0.197,0.197,0.196,0.196,0.195,0.195,0.194,0.193,0.193,0.192,0.192,0.191,0.191,0.191,0.191,0.191,0.19,0.19,0.19,0.19,0.189,0.189,0.189,0.189,0.188,0.188,0.188,0.188,0.187,0.187,0.187,0.187,0.187,0.186,0.186,0.186,0.186,0.186,0.186,0.186,0.186,0.185,0.185,0.185,0.185,0.185
0.369,0.369,0.369,0.37,0.37,0.37,0.37,0.37,0.371,0.371,0.371,0.371,0.372,0.372,0.372,0.372,0.373,0.373,0.373,0.373,0.373,0.374,0.374,0.374,0.374,0.374,0.374,0.374,0.374,0.374,0.374,0.375,0.375,0.375,0.375,0.375,0.375,0.375,0.375,0.376,0.376,0.376,0.376,0.376,0.376,0.376,0.377,0.377,0.377,0.377,0.377,0.377,0.378,0.378,0.378,0.378,0.379,0.379,0.379,0.379,0.379,0.379,0.38,0.38,0.38,0.379,0.379,0.379,0.379,0.379,0.379,0.379,0.379,0,0,0,0,0,0,0,0,0.348,0.348,0.347,0.347,0.347,0.347,0.347,0.346,0.347,0.347,0.347,0.347,0.347,0.346,0.346,0.346,0.346,0.346,0.346,0.346,0.346,0.346,0.346,0.346,0.347,0.347,0.347,0.347,0.347,0.347,0.348,0.348,0.348,0.348,0.349,0.349,0.349,0.349,0.349,0.349,0.35,0.35,0.35,0.35,0.35,0.35,0.35,0.35,0.35,0.35,0.35,0.35,0.35,0.35,0.35,0.35,0.35,0.351,0.351,0.351,0.351,0.351,0.351,0.351,0.351,0.352,0.352,0.352,0.352,0.352,0.353,0.353,0.353,0.353,0.353,0.354,0.354,0.354,0.354,0.354,0.355,0.355,0.355,0.355,0.355,0.355,0.355,0.355,0.355,0.355,0.355,0.356,0.356,0.356,0.356,0.357,0.357,0.358,0.358,0.358,0.358,0.359,0.359,0.359,0.359,0.359,0.359,0.36,0.36,0.36,0.36,0.36,0.36,0.36,0.36,0.36,0.36,0.36,0.361,0.361,0.361,0.361,0.361,0.361,0.362,0.362,0.362,0.362,0.362,0.362,0.363,0.363,0.363,0.363,0.363,0.363,0.363,0.363,0.364,0.364,0.364,0.364,0.364,0.365,0.365,0.365,0.366,0.366,0.366,0.366,0.367,0.367,0.367,0.367,0.367,0.367,0.367,0.367,0.367,0.367,0.367,0.368,0.368,0.368,0.368,0.368,0.368,0.369,0.369,0.369,0.369,0.369,0.369,0.369,0.37,0.37,0.37,0.37,0.37,0.37,0.37,0.37,0.371,0.371,0.371,0.371,0.371,0.371,0.372,0.372,0.372,0.372,0.373,0.373,0.373,0.373,0.374,0.374,0.374,0.374,0.374,0.374,0.374,0.374,0.375,0.375,0.375,0.375,0.375,0.375,0.376,0.376,0.376,0.376,0.376,0.377,0.377,0.377,0.377,0.378,0.378,0.378,0.378,0.379,0.379,0.379,0.379,0.379,0.379,0.379,0.38,0.38,0.38,0.38,0.38,0.38,0.38,0.38,0.38,0.38,0.38,0.381,0.381,0.381,0.381,0.381,0.381,0.381,0.381,0.381,0.381,0.381,0.382,0.382,0.383,0.383,0.383,0.384,0.385,0.386,0.387,0.389,0.391,0.392,0.394,0.397,0.399,0.401,0.403,0.404,0.407,0.411,0.414,0,0.42,0.423,0.425,0.427,0.428,0.428,0.429,0.429,0.429,0.429,0.429,0.43,0.43,0.43,0.43,0.431,0.431,0.431,0.431,0.432,0.432,0.432,0.432,0.432,0.432,0.432,0.433,0.433,0.433,0.433,0.433,0.433,0.434,0.434,0.434,0.434,0.434,0.434,0.434,0.434,0.434,0.434,0.434,0.434,0.435,0.435,0.435,0.435,0.435,0.435,0.435,0.434,0.434,0.433,0.432,0.431,0.43,0.429,0.427,0.426,0.425,0.424,0.423,0.423,0.422,0.421,0.42,0.419,0.419,0.418,0.417,0.416,0.416,0.415,0.414,0.413,0.413,0.412,0.411,0.41,0.409,0.409,0.408,0.407,0.407,0.406,0.406,0.405,0.405,0.404,0.404,0.404,0.403,0.403,0.403,0.403,0.403,0.402,0.402,0.402,0.401,0,0,0,0,0,0,0,0,0,0,0,0,0,0,0,0,0,0,0,0,0,0,0,0,0,0,0,0,0,0,0,0,0,0,0,0,0,0,0,0,0,0,0,0,0,0,0,0,0,0,0,0.205,0.205,0.204,0.204,0.204,0.203,0.203,0.202,0.202,0.201,0.201,0.2,0.199,0.199,0.198,0.198,0.198,0.197,0.197,0.197,0.196,0.196,0.195,0.195,0.194,0.194,0.193,0.192,0.192,0.192,0.191,0.191,0.191,0.191,0.19,0.19,0.19,0.19,0.19,0.189,0.189,0.189,0.188,0.188,0.188,0.188,0.187,0.187,0.187,0.187,0.187,0.186,0.186,0.186,0.186,0.186,0.186,0.186,0.186,0.185,0.185,0.185,0.185,0.185
0.369,0.369,0.369,0.369,0.369,0.369,0.369,0.37,0.37,0.37,0.37,0.371,0.371,0.371,0.371,0.372,0.372,0.372,0.372,0.373,0.373,0.373,0.373,0.373,0.373,0.374,0.374,0.374,0.374,0.374,0.374,0.374,0.374,0.374,0.374,0.374,0.374,0.374,0.375,0.375,0.375,0.375,0.375,0.375,0.376,0.376,0.376,0.376,0.376,0.376,0.376,0.377,0.377,0.377,0.377,0.378,0.378,0.378,0.378,0.378,0.378,0.379,0.379,0.379,0.379,0.379,0.379,0.379,0.379,0.379,0.378,0,0,0,0,0,0,0,0,0,0,0,0,0.347,0.347,0.347,0.346,0.346,0.346,0.346,0.346,0.346,0.346,0.346,0.346,0.346,0.346,0.346,0.346,0.346,0.346,0.346,0.346,0.346,0.346,0.346,0.346,0.346,0.346,0.346,0.346,0.347,0.347,0.347,0.348,0.348,0.348,0.348,0.348,0.348,0.349,0.349,0.349,0.349,0.349,0.349,0.349,0.349,0.349,0.349,0.349,0.349,0.349,0.349,0.35,0.35,0.35,0.35,0.35,0.35,0.35,0.35,0.351,0.351,0.351,0.351,0.351,0.351,0.351,0.352,0.352,0.352,0.352,0.352,0.352,0.353,0.353,0.353,0.353,0.353,0.354,0.354,0.354,0.354,0.355,0.355,0.355,0.355,0.355,0.355,0.355,0.355,0.355,0.355,0.355,0.356,0.356,0.357,0.357,0.357,0.358,0.358,0.358,0.358,0.359,0.359,0.359,0.359,0.359,0.359,0.359,0.359,0.359,0.359,0.359,0.359,0.359,0.36,0.36,0.36,0.36,0.36,0.36,0.361,0.361,0.361,0.361,0.361,0.361,0.361,0.362,0.362,0.362,0.362,0.362,0.362,0.363,0.363,0.363,0.363,0.363,0.363,0.364,0.364,0.364,0.364,0.365,0.365,0.365,0.366,0.366,0.366,0.366,0.366,0.367,0.367,0.367,0.367,0.367,0.367,0.367,0.367,0.367,0.367,0.367,0.367,0.367,0.368,0.368,0.368,0.368,0.368,0.369,0.369,0.369,0.369,0.369,0.369,0.369,0.369,0.369,0.369,0.369,0.37,0.37,0.37,0.37,0.37,0.371,0.371,0.371,0.371,0.372,0.372,0.372,0.372,0.372,0.373,0.373,0.373,0.373,0,0,0,0.374,0.374,0.374,0.374,0.374,0.374,0.374,0.375,0.375,0.375,0.375,0.376,0.376,0.376,0.376,0.377,0.377,0.377,0.377,0.378,0.378,0.378,0.378,0.378,0.378,0.378,0.379,0.379,0.379,0.379,0.379,0.379,0.379,0.38,0.38,0.38,0.38,0,0,0.38,0.38,0.38,0.38,0.381,0.381,0.381,0.381,0.381,0.381,0.381,0.382,0.382,0.383,0.383,0.384,0.385,0.387,0.389,0.39,0.392,0.395,0.397,0.399,0.401,0.403,0.405,0.407,0.41,0.413,0,0,0.421,0.423,0.425,0.427,0.427,0.428,0.428,0.428,0.428,0.428,0.428,0.429,0.429,0.43,0.43,0.43,0.43,0.431,0.431,0.431,0.431,0.431,0.431,0.431,0.431,0.431,0.431,0.431,0.432,0.432,0.432,0.432,0.432,0.433,0.433,0.433,0.433,0.433,0.433,0.433,0.433,0.434,0.434,0.434,0.434,0.434,0.434,0.435,0.435,0.435,0.434,0.434,0.434,0.433,0.432,0.431,0.43,0.429,0.428,0.427,0.425,0.424,0.423,0.422,0.421,0.421,0.42,0.419,0.419,0.418,0.417,0.416,0.415,0.415,0.414,0.413,0.413,0.412,0.411,0.41,0.409,0.408,0.407,0.407,0.406,0.406,0.405,0.405,0.404,0.404,0.404,0.403,0.403,0.403,0.403,0.402,0.402,0.402,0.401,0.401,0.401,0,0,0,0,0,0,0,0,0,0,0,0,0,0,0,0,0,0,0,0,0,0,0,0,0,0,0,0,0,0,0,0,0,0,0,0,0,0,0,0,0,0,0,0,0,0,0,0,0,0,0,0.205,0.205,0.204,0.204,0.204,0,0.203,0.203,0.202,0.201,0.201,0.2,0.2,0.199,0.199,0.198,0.198,0.198,0.197,0.197,0.197,0.196,0.195,0.195,0.194,0.194,0,0.193,0.192,0.192,0.192,0.191,0.191,0.191,0.191,0.19,0.19,0.19,0.19,0.189,0.189,0.189,0.188,0.188,0.188,0.188,0.187,0.187,0.187,0.187,0.187,0.186,0.186,0.186,0.186,0.186,0.186,0.186,0.186,0.185,0.185,0.185,0.185,0.185
0.368,0.368,0.368,0.368,0.369,0.369,0.369,0.369,0.369,0.369,0.37,0.37,0.37,0.371,0.371,0.371,0.371,0.371,0.371,0.372,0.372,0.372,0.373,0.373,0.373,0.373,0.373,0.373,0.373,0.373,0.373,0.373,0.374,0.373,0.374,0.374,0.374,0.374,0.374,0.374,0.374,0.374,0.375,0.375,0.375,0.375,0.375,0.375,0.376,0.376,0.376,0.376,0.376,0.376,0.377,0.377,0.377,0.377,0.377,0.378,0.378,0.378,0.378,0.378,0.378,0.378,0.378,0.378,0.378,0.378,0.378,0.377,0,0,0,0,0,0,0,0,0,0,0,0,0.347,0.346,0.346,0.346,0.346,0.345,0.346,0.346,0.346,0.345,0.345,0.345,0.345,0.345,0.345,0.345,0.345,0.345,0.345,0.345,0.345,0.345,0.345,0.345,0.345,0.345,0.346,0.346,0.346,0.347,0.347,0.347,0.347,0.347,0.347,0.348,0.348,0.348,0.348,0.348,0.348,0.348,0.348,0.349,0.349,0.349,0.349,0.349,0.349,0.349,0.349,0.349,0.349,0.349,0.349,0.35,0.35,0.35,0.35,0.35,0.35,0.35,0.35,0.351,0.351,0.351,0.351,0.351,0.351,0.352,0.352,0.352,0.352,0.352,0.352,0.353,0.353,0.353,0.353,0.354,0.354,0.354,0.354,0.354,0.354,0.354,0.354,0.354,0.354,0.355,0.355,0.355,0.355,0.356,0.356,0.357,0.357,0.357,0.357,0.358,0.358,0.358,0.358,0.358,0.358,0.359,0.359,0.359,0.359,0.359,0.359,0.359,0.359,0.359,0.359,0.359,0.359,0.36,0.36,0.36,0.36,0.36,0.36,0.361,0.361,0.361,0.361,0.361,0.361,0.361,0.361,0.362,0.362,0.362,0.362,0.362,0.363,0.363,0.363,0.363,0.363,0.364,0.364,0.364,0.365,0.365,0.365,0.365,0.366,0.366,0.366,0.366,0.366,0.366,0.366,0.366,0.366,0.366,0.366,0.366,0.367,0.367,0.367,0.367,0.367,0.367,0.368,0.368,0.368,0.368,0.368,0.368,0.368,0.368,0.368,0.369,0.369,0.369,0.369,0.369,0.369,0.369,0.369,0.37,0.37,0.37,0.371,0.371,0.371,0.371,0.371,0.372,0.372,0.372,0.372,0.372,0.372,0,0,0,0.373,0.373,0.373,0.373,0.373,0.374,0.374,0.374,0.374,0.374,0.375,0.375,0.375,0.376,0.376,0.376,0.376,0.376,0.376,0.377,0.377,0.377,0.377,0.377,0.377,0.378,0.378,0.378,0.378,0.378,0.379,0.379,0.379,0.379,0.379,0.379,0.379,0.379,0.379,0.379,0.379,0.38,0.38,0.38,0.38,0.38,0.38,0.38,0.381,0.381,0.381,0.382,0.382,0.383,0.384,0.386,0.388,0.39,0.393,0.395,0.397,0.4,0.402,0.404,0.406,0.407,0.409,0.412,0.414,0.417,0,0.421,0.423,0.424,0.426,0.426,0.427,0.427,0.427,0.427,0.427,0.428,0.428,0.428,0.428,0.428,0.429,0.429,0.43,0.43,0.43,0.43,0.43,0.43,0.43,0.43,0.431,0.431,0.431,0.431,0.431,0.431,0.431,0.431,0.432,0.432,0.432,0.432,0.432,0.432,0.432,0.432,0.433,0.433,0.433,0.433,0.433,0.434,0.434,0.434,0.434,0.434,0.434,0.434,0.433,0.432,0.431,0.43,0.429,0.428,0.427,0.426,0.425,0.423,0.423,0.422,0.421,0.42,0.419,0.419,0.418,0.417,0.416,0.415,0.415,0.414,0.413,0.413,0.412,0.411,0.41,0.409,0.408,0.407,0.407,0.406,0.405,0.405,0.404,0.404,0.403,0.403,0.403,0.403,0.402,0.402,0.402,0.402,0.401,0.401,0.401,0.401,0,0,0,0,0,0,0,0,0,0,0,0,0,0,0,0,0,0,0,0,0,0,0,0,0,0,0,0,0,0,0,0,0,0,0,0,0,0,0,0,0,0,0,0,0,0,0,0,0,0.206,0.206,0.205,0.205,0.204,0.204,0,0.204,0.203,0.203,0.202,0.202,0,0.2,0.2,0.199,0.199,0.199,0.198,0.198,0.198,0.197,0.197,0.196,0.196,0.195,0.195,0.194,0.193,0.193,0.193,0.192,0.192,0.191,0.191,0.191,0.191,0.19,0.19,0.19,0.19,0.189,0.189,0.189,0.188,0.188,0.188,0.188,0.187,0.187,0.187,0.187,0.187,0.186,0.186,0.186,0.186,0.186,0.186,0.185,0.185,0.185,0.185,0.185,0.185,0.185
0.367,0.368,0.368,0.368,0.368,0.368,0.368,0.368,0.368,0.369,0.369,0.369,0.369,0.37,0.37,0.37,0.37,0.371,0.371,0.371,0.371,0.372,0.372,0.372,0.372,0.373,0.373,0.373,0.373,0.373,0.373,0.373,0.373,0.373,0.373,0.373,0.373,0.373,0.373,0.373,0.373,0.374,0.374,0.374,0.374,0.374,0.375,0.375,0.375,0.375,0.375,0.376,0.376,0.376,0.376,0.376,0.376,0.377,0.377,0.377,0.377,0.377,0.377,0.377,0.377,0.377,0.377,0.377,0.377,0.377,0.377,0.377,0.376,0,0,0,0,0,0,0,0,0,0,0,0,0.347,0.346,0.346,0.346,0.346,0.345,0.345,0.345,0.345,0.345,0.345,0.345,0.345,0.345,0.345,0.344,0.345,0.344,0.344,0.344,0.344,0.344,0.344,0.344,0.345,0.345,0.345,0.345,0.346,0.346,0.346,0.346,0.346,0.347,0.347,0.347,0.347,0.347,0.347,0.347,0.348,0.348,0.348,0.348,0.348,0.348,0.348,0.348,0.348,0.348,0.348,0.348,0.349,0.349,0.349,0.349,0.349,0.349,0.349,0.349,0.349,0.35,0.35,0.35,0.35,0.35,0.35,0.351,0.351,0.351,0.351,0.351,0.351,0.352,0.352,0.352,0.353,0.353,0.353,0.353,0.353,0.354,0.354,0.354,0.354,0.354,0.354,0.354,0.354,0.354,0.354,0.355,0.355,0.356,0.356,0.356,0.356,0.357,0.357,0.357,0.357,0.358,0.358,0.358,0.358,0.358,0.358,0.358,0.358,0.358,0.358,0.358,0.358,0.358,0.358,0.359,0.359,0.359,0.359,0.359,0.36,0.36,0.36,0.36,0.36,0.36,0.36,0.361,0.361,0.361,0.361,0.361,0.361,0.361,0.362,0.362,0.362,0.362,0.363,0.363,0.363,0.363,0.364,0.364,0.364,0.364,0.365,0.365,0.365,0.365,0.365,0.365,0.365,0.365,0.365,0.365,0.366,0.366,0.366,0.366,0.366,0.366,0.366,0.366,0.367,0.367,0.367,0.367,0.367,0.367,0.367,0.368,0.368,0.368,0.368,0.368,0.368,0.368,0.368,0.368,0.369,0.369,0.369,0.37,0.37,0.37,0.37,0.371,0.371,0.371,0.371,0.371,0.371,0.371,0.371,0.371,0.372,0.372,0.372,0.372,0.372,0.372,0.372,0.373,0.373,0.373,0.373,0.374,0.374,0.374,0.374,0.375,0.375,0.375,0.375,0.375,0.376,0.376,0.376,0.376,0.376,0.376,0.376,0.376,0.377,0.377,0.377,0.377,0.378,0.378,0.378,0.378,0.378,0.378,0.378,0.378,0.378,0.378,0.379,0.379,0.379,0.379,0.38,0.38,0.38,0.38,0.38,0.38,0.381,0.381,0.381,0.383,0.384,0.385,0.388,0.39,0.393,0.396,0.399,0.401,0.403,0.405,0,0.409,0.41,0.411,0.414,0.416,0.417,0.419,0.421,0.423,0.424,0.425,0.425,0.426,0.426,0.426,0.426,0.427,0.427,0.427,0.427,0.428,0.428,0.428,0.428,0.428,0.429,0.429,0.429,0.429,0.429,0.429,0.43,0.43,0.43,0.43,0.43,0.43,0.431,0.431,0.431,0.431,0.431,0.431,0.431,0.431,0.431,0.431,0.431,0.432,0.432,0.432,0.432,0.432,0.433,0.433,0.434,0.433,0.433,0.433,0.433,0.433,0.432,0.431,0.43,0.429,0.428,0.427,0.426,0.425,0.424,0.423,0.422,0.421,0.42,0.419,0.419,0.418,0.417,0.416,0.415,0.415,0.414,0.413,0.412,0.412,0.411,0.41,0.409,0.408,0.407,0.406,0.406,0.405,0.404,0.404,0.403,0.403,0.403,0.402,0.402,0.402,0.401,0.401,0.401,0.401,0.401,0.4,0.4,0.4,0.399,0.399,0.399,0,0,0,0,0,0,0,0,0,0,0,0,0,0,0,0,0,0,0,0,0,0,0,0,0,0,0,0,0,0,0,0,0,0,0,0,0,0,0,0,0,0,0,0,0,0,0,0,0,0,0,0,0,0.203,0,0.202,0.202,0,0.201,0.2,0.2,0.199,0.199,0.199,0,0.198,0.197,0.197,0.196,0.196,0.195,0.195,0.194,0.194,0.193,0.193,0.192,0.192,0.192,0.191,0.191,0.191,0.19,0.19,0.19,0.19,0.189,0.189,0.189,0.188,0.188,0.188,0.188,0.187,0.187,0.187,0.187,0.187,0.186,0.186,0.186,0.186,0.186,0.186,0.185,0.185,0.185,0.185,0.185,0.185,0.185
0.367,0.367,0.367,0.367,0.367,0.367,0.368,0.368,0.368,0.368,0.368,0.369,0.369,0.369,0.369,0.369,0.369,0.37,0.37,0.371,0.371,0.371,0.371,0.371,0.372,0.372,0.372,0.372,0.372,0.372,0.372,0.372,0.372,0.372,0.372,0.372,0.372,0.372,0.372,0.372,0.373,0.373,0.373,0.373,0.374,0.374,0.374,0.374,0.374,0.375,0.375,0.375,0.375,0.375,0.376,0.376,0.376,0.376,0.376,0.376,0.377,0.376,0.377,0.377,0.377,0.377,0.377,0.377,0.377,0.377,0.376,0.376,0.376,0,0,0,0,0,0,0,0,0,0,0,0,0.349,0.348,0.347,0.346,0.346,0.345,0.345,0.345,0.345,0.345,0.344,0.344,0.344,0.344,0.344,0.344,0.344,0.344,0.344,0.344,0.344,0.344,0.343,0.344,0.344,0.344,0.344,0.344,0.345,0.345,0.345,0.345,0.346,0.346,0.346,0.346,0.346,0.346,0.347,0.347,0.347,0.347,0.347,0.347,0.347,0.347,0.347,0.347,0.348,0.348,0.348,0.348,0.348,0.348,0.348,0.348,0.349,0.349,0.349,0.349,0.349,0.349,0.349,0.349,0.349,0.349,0.35,0.35,0.35,0.35,0.35,0.351,0.351,0.351,0.351,0.352,0.352,0.352,0.353,0.353,0.353,0.353,0.353,0.353,0.353,0.353,0.353,0.353,0.354,0.353,0.354,0.354,0.354,0.355,0.355,0.355,0.356,0.356,0.356,0.357,0.357,0.357,0.357,0.357,0.357,0.357,0.357,0.357,0.357,0.357,0.357,0.357,0.357,0.358,0.358,0.358,0.358,0.358,0.359,0.359,0.359,0.359,0.359,0.359,0.359,0.36,0.36,0.36,0.36,0.36,0.36,0.361,0.361,0.361,0.361,0.361,0.361,0.362,0.362,0.362,0.362,0.363,0.363,0.363,0.364,0.364,0.364,0.364,0.364,0.364,0.364,0.364,0.364,0.365,0.365,0.365,0.365,0.365,0.365,0.365,0.365,0.366,0.366,0.366,0.366,0.366,0.366,0.366,0.367,0.367,0.367,0.367,0.367,0.367,0.367,0.367,0.367,0.367,0.368,0.368,0.368,0.368,0.369,0.369,0.369,0.369,0.37,0.37,0.37,0.37,0.37,0.37,0.37,0.371,0.371,0.371,0.371,0.371,0.371,0.371,0.371,0.371,0.372,0.372,0.372,0.372,0.372,0.373,0.373,0.373,0.374,0.374,0.374,0.374,0.374,0.374,0.375,0.375,0.375,0.375,0.375,0.376,0.376,0.376,0.376,0.376,0.376,0.376,0.377,0.377,0.377,0.377,0.377,0.377,0.377,0.377,0.378,0.378,0.378,0.378,0.378,0.379,0.379,0.379,0.379,0.38,0.38,0.38,0.38,0.381,0.381,0.382,0.384,0.387,0,0.393,0.397,0.4,0.402,0.405,0,0,0,0.411,0,0.413,0.415,0.417,0.419,0.42,0.421,0.422,0.423,0.424,0.425,0.425,0.425,0.425,0.425,0.426,0.426,0.426,0.426,0.427,0.427,0.427,0.428,0.428,0.428,0.428,0.428,0.428,0.428,0.428,0.429,0.429,0.429,0.429,0.429,0.429,0.43,0.43,0.43,0.43,0.43,0.43,0.43,0.43,0.43,0.431,0.431,0.431,0.431,0.431,0.431,0.432,0.432,0.433,0.433,0.433,0.433,0.433,0.433,0.432,0.432,0.431,0.43,0.43,0.429,0.428,0.427,0.425,0.425,0.424,0.423,0.422,0.421,0.42,0.419,0.418,0.417,0.416,0.415,0.414,0.414,0.413,0.412,0.412,0.411,0.41,0.409,0.408,0.407,0.406,0.405,0.405,0.404,0.404,0.403,0.403,0.402,0.402,0.402,0.401,0.401,0.401,0.4,0.4,0.4,0.4,0.399,0.399,0.399,0.398,0.398,0.398,0,0,0,0,0,0,0,0,0,0,0,0,0,0,0,0,0,0,0,0,0,0,0,0,0,0,0,0,0,0,0,0,0,0,0,0,0,0,0,0,0,0,0,0,0,0,0,0,0,0.205,0.204,0.204,0.204,0.203,0.203,0.202,0,0.201,0.201,0.2,0.2,0.199,0.199,0.199,0.198,0.198,0.197,0.196,0.196,0.195,0.195,0.194,0.194,0.194,0.193,0.193,0.192,0.192,0.192,0.191,0.191,0.191,0.19,0.19,0.19,0.189,0.189,0.189,0.188,0.188,0.188,0.188,0.188,0.187,0.187,0.187,0.187,0.186,0.186,0.186,0.186,0.186,0.185,0.185,0.185,0.185,0.185,0.185,0.185,0.185
0.366,0.366,0.366,0.367,0.367,0.367,0.367,0.367,0.367,0.367,0.367,0.367,0.368,0.368,0.368,0.368,0.369,0.369,0.369,0.369,0.37,0.37,0.371,0.371,0.371,0.371,0.371,0.371,0.371,0.371,0.372,0.372,0.371,0.371,0.371,0.371,0.371,0.371,0.371,0.372,0.372,0.372,0.372,0.373,0.373,0.373,0.373,0.374,0.374,0.374,0.374,0.374,0.375,0.375,0.375,0.375,0.375,0.376,0.376,0.376,0.376,0.376,0.376,0.376,0.376,0.376,0.376,0.376,0.376,0.376,0.376,0.376,0.375,0,0.375,0,0,0,0,0,0,0,0,0,0,0,0.348,0.347,0.346,0.346,0.345,0.345,0.345,0.344,0.344,0.344,0.344,0.344,0.343,0.343,0.343,0.343,0.343,0.343,0.343,0.343,0.343,0.343,0.343,0.343,0.343,0.344,0.344,0.344,0.344,0.344,0.345,0.345,0.345,0.345,0.345,0.345,0.346,0.346,0.346,0.346,0.346,0.346,0.346,0.346,0.347,0.347,0.347,0.347,0.347,0.347,0.347,0.347,0.347,0.348,0.348,0.348,0.348,0.348,0.348,0.348,0.348,0.348,0.349,0.349,0.349,0.349,0.349,0.349,0.349,0.35,0.35,0.35,0.35,0.351,0.351,0.351,0.352,0.352,0.352,0.352,0.353,0.353,0.353,0.353,0.353,0.353,0.353,0.353,0.353,0.353,0.354,0.354,0.354,0.355,0.355,0.355,0.355,0.356,0.356,0.356,0.356,0.356,0.356,0.356,0.356,0.356,0.356,0.356,0.356,0.357,0.357,0.357,0.357,0.357,0.357,0.358,0.358,0.358,0.358,0.358,0.358,0.358,0.359,0.359,0.359,0.359,0.359,0.359,0.36,0.36,0.36,0.36,0.36,0.36,0.36,0.361,0.361,0.361,0.361,0.361,0.362,0.362,0.362,0.363,0.363,0.363,0.363,0.363,0.363,0.364,0.364,0.364,0.364,0.364,0.364,0.364,0.364,0.364,0.365,0.365,0.365,0.365,0.365,0.365,0.366,0.366,0.366,0.366,0.366,0.366,0.366,0.366,0.367,0.367,0.367,0.367,0.367,0.367,0.367,0.367,0.368,0.368,0.368,0.368,0.369,0.369,0.369,0.369,0.369,0.37,0.37,0.37,0.37,0.37,0.37,0.37,0.37,0.37,0.37,0.371,0.371,0.371,0.371,0.371,0.372,0.372,0.372,0.372,0.373,0.373,0.373,0.373,0.374,0.373,0.374,0.374,0.374,0.374,0.374,0.374,0.375,0.375,0.375,0.375,0.375,0.375,0.376,0.376,0.376,0.376,0.376,0.376,0.376,0.376,0.376,0.377,0.377,0.377,0.377,0.378,0.378,0.378,0.379,0.379,0.379,0.379,0.379,0.38,0.38,0.381,0.382,0.385,0,0.392,0.396,0.401,0,0.406,0,0.41,0.411,0.412,0.413,0.414,0.415,0.417,0.418,0.419,0.42,0.421,0.422,0.423,0.423,0.423,0.424,0.424,0.424,0.425,0.425,0.425,0.425,0.425,0.426,0.426,0.426,0.426,0.427,0.427,0.427,0.427,0.427,0.428,0.428,0.428,0.428,0.428,0.428,0.428,0.428,0.429,0.429,0.429,0.429,0.429,0.429,0.429,0.429,0.429,0.429,0.43,0.43,0.43,0.43,0.431,0.431,0.431,0.432,0.432,0.432,0.432,0.432,0.432,0.432,0.432,0.431,0.43,0.43,0.429,0.428,0.427,0.426,0.425,0.424,0.423,0.422,0.421,0.42,0.419,0.418,0.417,0.416,0.415,0.414,0.413,0.413,0.412,0.411,0.41,0.41,0.409,0.407,0.407,0.406,0.405,0.404,0.404,0.403,0.403,0.402,0.402,0.401,0.401,0.401,0.4,0.4,0.4,0.399,0.399,0.399,0.399,0.398,0.398,0.398,0.398,0,0,0,0,0,0,0,0,0,0,0,0,0,0,0,0,0,0,0,0,0,0,0,0,0,0,0,0,0,0,0,0,0,0,0,0,0,0,0,0,0,0,0,0,0,0,0,0,0,0,0,0.205,0.205,0.204,0.204,0.203,0.203,0,0.201,0.201,0.201,0.2,0.2,0.199,0.199,0.198,0.198,0.197,0.197,0.196,0.196,0.195,0.195,0.194,0.194,0.193,0.193,0.193,0.192,0.192,0.191,0.191,0.191,0.19,0.19,0.19,0.189,0.189,0.189,0.188,0.188,0.188,0.188,0.188,0.187,0.187,0.187,0.187,0.186,0.186,0.186,0.186,0.186,0.185,0.185,0.185,0.185,0.185,0.185,0.185,0.185
0.366,0.366,0.366,0.366,0.366,0.366,0.366,0.367,0.367,0.367,0.367,0.367,0.367,0.367,0.367,0.368,0.368,0.368,0.369,0.369,0.369,0.369,0.37,0.37,0.37,0.371,0.371,0.371,0.371,0.371,0.371,0.371,0.371,0.371,0.371,0.371,0.371,0.371,0.371,0.371,0.371,0.371,0.372,0.372,0.372,0.373,0.373,0.373,0.373,0.373,0.374,0.374,0.374,0.374,0.374,0.374,0.375,0.375,0.375,0.375,0.375,0.375,0.375,0.375,0.375,0.375,0.376,0.376,0.376,0.376,0.375,0.375,0.375,0.375,0.374,0.374,0.373,0,0,0,0,0.368,0,0,0,0,0.348,0.347,0.346,0.345,0.345,0.345,0.344,0.344,0.344,0.344,0.343,0.343,0.343,0.343,0.343,0.343,0.343,0.343,0.343,0.343,0.343,0.342,0.343,0.343,0.343,0.343,0.343,0.343,0.343,0.344,0.344,0.344,0.344,0.344,0.345,0.345,0.345,0.345,0.345,0.345,0.345,0.345,0.345,0.346,0.346,0.346,0.346,0.346,0.346,0.347,0.347,0.347,0.347,0.347,0.347,0.347,0.347,0.347,0.347,0.347,0.348,0.348,0.348,0.348,0.348,0.348,0.348,0.349,0.349,0.349,0.349,0.35,0.35,0.35,0.351,0.351,0.351,0.352,0.352,0.352,0.352,0.352,0.352,0.352,0.352,0.352,0.352,0.353,0.353,0.353,0.353,0.353,0.354,0.354,0.354,0.354,0.355,0.355,0.355,0.355,0.355,0.355,0.356,0.356,0.356,0.356,0.356,0.356,0.356,0.356,0.356,0.356,0.356,0.356,0.357,0.357,0.357,0.357,0.357,0.358,0.358,0.358,0.358,0.358,0.358,0.358,0.358,0.358,0.359,0.359,0.359,0.359,0.359,0.36,0.36,0.36,0.36,0.36,0.361,0.361,0.361,0.361,0.361,0.362,0.362,0.362,0.362,0.363,0.363,0.363,0.363,0.363,0.363,0.363,0.364,0.364,0.364,0.364,0.364,0.364,0.364,0.364,0.364,0.364,0.365,0.365,0.365,0.365,0.365,0.365,0.366,0.366,0.366,0.366,0.366,0.366,0.366,0.366,0.366,0.367,0.367,0.367,0.367,0.368,0.368,0.368,0.368,0.369,0.369,0.369,0.369,0.369,0.369,0.369,0.37,0.37,0.37,0.37,0.37,0.37,0.37,0.371,0.371,0.371,0.371,0.371,0.371,0.371,0.372,0.372,0.372,0.372,0.373,0.373,0.373,0.373,0.373,0.373,0.374,0.374,0.374,0.374,0.374,0.374,0.374,0.374,0.375,0.375,0.375,0.375,0.376,0.376,0.376,0.376,0.376,0.376,0.376,0.377,0.377,0.377,0.377,0.378,0.378,0.378,0.378,0.379,0.379,0.379,0.38,0.38,0.384,0.386,0.39,0,0,0,0.408,0.41,0.412,0.413,0.413,0.414,0.415,0.416,0.417,0.418,0.418,0.419,0.42,0.421,0.422,0.422,0.422,0.423,0.423,0.423,0.423,0.424,0.424,0.424,0.424,0.425,0.425,0.425,0.425,0.425,0.425,0.426,0.426,0.426,0.426,0.427,0.427,0.427,0.427,0.427,0.427,0.428,0.428,0.428,0.428,0.428,0.428,0.428,0.428,0.428,0.428,0.428,0.428,0.429,0.429,0.429,0.429,0.43,0.43,0.431,0.431,0.431,0.431,0.431,0.431,0.432,0.431,0.431,0.431,0.43,0.43,0.429,0.428,0.428,0.427,0.426,0.425,0.424,0.423,0.421,0.42,0.419,0.418,0.417,0.415,0.415,0.414,0.413,0.412,0.412,0.411,0.41,0.409,0.408,0.407,0.406,0.406,0.405,0.404,0.403,0.403,0.402,0.402,0.401,0.401,0.401,0.4,0.4,0.399,0.399,0.399,0.398,0.398,0.398,0.398,0.397,0.397,0.397,0.397,0,0,0,0,0,0,0,0,0,0,0,0,0,0,0,0,0,0,0,0,0,0,0,0,0,0,0,0,0,0,0,0,0,0,0,0,0,0,0,0,0,0,0,0,0,0,0,0,0,0,0,0.205,0,0,0,0,0.202,0.202,0.201,0.201,0.2,0.2,0.2,0.199,0.199,0.198,0.198,0.197,0.196,0.196,0.195,0.195,0.194,0.194,0.194,0.193,0.193,0.192,0.192,0.192,0.191,0.191,0.19,0.19,0.19,0.189,0.189,0.189,0.188,0.188,0.188,0.188,0.188,0.187,0.187,0.187,0.187,0.186,0.186,0.186,0.186,0.186,0.185,0.185,0.185,0.185,0.185,0.185,0.185,0.185
0.365,0.365,0.365,0.365,0.365,0.366,0.366,0.366,0.366,0.366,0.366,0.366,0.366,0.366,0.367,0.367,0.367,0.367,0.368,0.368,0.368,0.369,0.369,0.369,0.37,0.37,0.37,0.37,0.37,0.37,0.37,0.37,0.37,0.37,0.37,0.37,0.37,0.37,0.37,0.371,0.371,0.371,0.371,0.371,0.372,0.372,0.372,0.372,0.372,0.373,0.373,0.373,0.373,0.373,0.374,0.374,0.374,0.374,0.374,0.374,0.374,0.374,0.374,0.374,0.374,0.375,0.375,0.375,0.375,0.375,0.375,0.375,0.375,0.374,0.374,0.373,0.373,0,0,0.372,0.371,0.37,0.367,0,0,0,0,0.347,0.346,0.345,0.345,0.344,0.344,0.344,0.344,0.343,0.343,0.343,0.342,0.342,0.342,0.342,0.342,0.342,0.342,0.342,0.342,0.342,0.342,0.342,0.342,0.342,0.342,0.342,0.343,0.343,0.343,0.343,0.344,0.344,0.344,0.344,0.344,0.344,0.344,0.344,0.344,0.344,0.344,0.345,0.345,0.345,0.345,0.345,0.346,0.346,0.346,0.346,0.346,0.346,0.347,0.347,0.347,0.347,0.347,0.347,0.347,0.347,0.347,0.348,0.348,0.348,0.348,0.348,0.348,0.348,0.349,0.349,0.349,0.35,0.35,0.35,0.351,0.351,0.351,0.351,0.351,0.351,0.352,0.352,0.352,0.352,0.352,0.352,0.352,0.352,0.352,0.353,0.353,0.353,0.353,0.354,0.354,0.354,0.354,0.354,0.355,0.354,0.355,0.355,0.355,0.355,0.355,0.355,0.355,0.355,0.355,0.355,0.356,0.356,0.356,0.356,0.357,0.357,0.357,0.357,0.357,0.357,0.357,0.357,0.357,0.357,0.358,0.358,0.358,0.358,0.358,0.358,0.358,0.359,0.359,0.359,0.359,0.36,0.36,0.36,0.36,0.36,0.361,0.361,0.361,0.361,0.361,0.361,0.361,0.362,0.362,0.362,0.363,0.363,0.363,0.363,0.363,0.363,0.364,0.364,0.364,0.364,0.364,0.364,0.364,0.364,0.364,0.364,0.364,0.365,0.365,0.365,0.365,0.365,0.365,0.365,0.366,0.366,0.366,0.366,0.366,0.367,0.367,0.367,0.367,0.367,0.368,0.368,0.368,0.368,0.368,0.369,0.369,0.369,0.369,0.369,0.369,0.369,0.369,0.369,0.37,0.37,0.37,0.37,0.37,0.371,0.371,0.371,0.371,0.371,0.372,0.372,0.372,0.372,0.372,0.372,0.373,0.373,0.373,0.373,0.373,0.373,0.373,0.374,0.374,0.374,0.374,0.374,0.374,0.374,0.375,0.375,0.375,0.375,0.375,0.376,0.376,0.376,0.376,0.376,0.376,0.377,0.377,0.377,0.378,0.378,0.378,0.379,0.379,0.38,0.384,0.388,0,0,0.404,0.409,0.412,0.413,0.414,0.415,0.415,0.416,0.417,0.417,0.418,0.419,0.419,0.419,0.42,0.421,0.421,0.421,0.422,0.422,0.422,0.423,0.423,0.423,0.423,0.423,0.423,0.424,0.424,0.424,0.424,0.424,0.425,0.425,0.425,0.425,0.425,0.426,0.426,0.426,0.426,0.426,0.426,0.427,0.427,0.427,0.427,0.427,0.427,0.428,0.428,0.428,0.428,0.428,0.428,0.428,0.428,0.428,0.429,0.429,0.43,0.43,0.43,0.431,0.431,0.431,0.431,0.431,0.431,0.431,0.43,0.43,0.43,0.429,0.429,0.428,0.427,0.427,0.426,0.425,0.423,0.422,0.421,0.419,0.418,0.417,0.416,0.415,0.414,0.413,0.412,0.412,0.411,0.41,0.409,0.408,0.407,0.406,0.405,0.404,0.404,0.403,0.403,0.402,0.402,0.401,0.401,0.4,0.4,0.399,0.399,0.399,0.398,0.398,0.398,0.398,0.397,0.397,0.397,0.397,0.396,0.396,0.396,0,0,0,0,0,0,0,0,0,0,0,0,0,0,0,0,0,0,0,0,0,0,0,0,0,0,0,0,0,0,0,0,0,0,0,0,0,0,0,0,0,0,0,0,0,0,0,0,0,0.205,0.205,0.204,0,0,0.203,0.202,0.202,0.201,0.201,0.2,0.2,0.199,0.199,0.198,0.198,0.197,0.197,0.196,0.195,0.195,0.195,0.194,0.194,0.193,0.193,0.193,0.192,0.192,0.191,0.191,0.19,0.19,0.19,0.189,0.189,0.189,0.189,0.188,0.188,0.188,0.188,0.187,0.187,0.187,0.187,0.186,0.186,0.186,0.186,0.185,0.185,0.185,0.185,0.185,0.185,0.185,0.185,0.185
