0.335,0.334,0.335,0.335,0.335,0.335,0.335,0.336,0.336,0.337,0.337,0.338,0.339,0.339,0.34,0.341,0.341,0.342,0.342,0.343,0.343,0.344,0.345,0.346,0.346,0.347,0.348,0.349,0.35,0.35,0.351,0.352,0.353,0.354,0.354,0.355,0.356,0.356,0.357,0.357,0.358,0.359,0.36,0.361,0.361,0.362,0.363,0.364,0.365,0.366,0.367,0.368,0.369,0.37,0.371,0.372,0.373,0.374,0.375,0.376,0.376,0.377,0.378,0.379,0.38,0.381,0.382,0.383,0.384,0.385,0.386,0.388,0.389,0.39,0.391,0.392,0.393,0.394,0.395,0.395,0.396,0.397,0.398,0.399,0.4,0.401,0.402,0.404,0.405,0.407,0,0,0,2.07,2.07,0,0,0,0,0,0,0,0,0,0,0,0,0,0,0,0,0,0,0,0,0,0,0,0,0,0.674,0.673,0.674,0.675,0.676,0.676,0.676,0.676,0.675,0.674,0.674,0.673,0.673,0.671,0.67,0.669,0.668,0.666,0.665,0.665,0.664,0.663,0.664,0.664,0.664,0.664,0.664,0.663,0.663,0.663,0.662,0.661,0.66,0.659,0.658,0.657,0.655,0.655,0.653,0.652,0.651,0.649,0.648,0.647,0.646,0.645,0.644,0.644,0.643,0.642,0.642,0.641,0.64,0.639,0.638,0.638,0.638,0.637,0.637,0.637,0.636,0.636,0.636,0.636,0.635,0.634,0.634,0.633,0.632,0.631,0.631,0.631,0.63,0.63,0.63,0.63,0.631,0.632,0.634,0.635,0.637,0.64,0.642,0.644,0.647,0.649,0.653,0.656,0.66,0.663,0.667,0.672,0.676,0.682,0.686,0.69,0.695,0.698,0.702,0.705,0.707,0.709,0.711,0.711,0.711,0.712,0.712,0.711,0.711,0,0,0,0,0,0,0,0,0,0,0,0,0,0,0,0,0.447,0.446,0.446,0.444,0.443,0.442,0.44,0.439,0.437,0.435,0.433,0.432,0.431,0.429,0.428,0.426,0.424,0.422,0.42,0.418,0.417,0.415,0.413,0.412,0.411,0.41,0.409,0.407,0.406,0.404,0.403,0.401,0.399,0.398,0.396,0.395,0.394,0.393,0.392,0.391,0.389,0.388,0.387,0.386,0.384,0.383,0.382,0.38,0.379,0.378,0.377,0.376,0.375,0.374,0.373,0.372,0.371,0.37,0.37,0.369,0.369,0.369,0.369,0.369,0.37,0.37,0.371,0.372,0.373,0.374,0.375,0.376,0.376,0.377,0.378,0.379,0.38,0.38,0.382,0.382,0.384,0.385,0.385,0.386,0.387,0.389,0.39,0.391,0.392,0.392,0.393,0.394,0.395,0.396,0.397,0.397,0.398,0.4,0.402,0.403,0.404,0.405,0.406,0.407,0,0,0,0.783,0.783,0.783,0.783,0.783,0.783,0.784,0.784,0.784,0.785,0.786,0.787,0.787,0.788,0.789,0.79,0.791,0.792,0.793,0.794,0.794,0.795,0.795,0.796,0.796,0.796,0.796,0.797,0.797,0.797,0.797,0.798,0.798,0.8,0.801,0.802,0.802,0.803,0.804,0.805,0.806,0.807,0.807,0.807,0.807,0.808,0.808,0.808,0.808,0.808,0.807,0.807,0.807,0.807,0.808,0.809,0.809,0.81,0.811,0.814,0.815,0.818,0.819,0.818,0.818,0.819,0.818,0.818,0.815,0,0,2.541,2.541,2.541,2.53,2.53,2.53,2.52,2.52,2.52,2.52,2.509,2.509,2.509,2.499,2.499,2.489,2.489,2.479,2.479,2.469,2.469,2.469,2.469,2.469,2.469,2.469,2.469,2.469,2.469,2.479,2.479,2.489,2.489,2.489,2.499,2.499,2.499,2.499,2.509,2.509,0,2.52,0,0,0,0,0,0,0,0,0,0,0,0,0,0,0,0,0,0,0,0,0.74,0.739,0.738,0.736,0.736,0.735,0.735,0.734,0.733,0.732,0.73,0.728,0.728,0.728,0.727,0.726,0.725,0.723,0.722,0.722,0.721,0.719,0.718,0.717,0.716,0.714,0.713,0.712,0.711,0.71,0.709,0.707,0.706,0.705,0.703,0.702,0.7,0.698,0.696,0.694,0.692,0.69,0.688,0.685,0.682,0,0,0,0,0,0.595,0.589,0.586,0.583,0.58,0.578,0,0.574,0.572,0.572,0.571,0.571,0.571,0.572,0.572
0.335,0.335,0.335,0.335,0.335,0.335,0.336,0.336,0.336,0.337,0.338,0.338,0.339,0.34,0.34,0.341,0.342,0.342,0.343,0.343,0.344,0.345,0.345,0.346,0.347,0.347,0.348,0.349,0.35,0.351,0.352,0.352,0.353,0.354,0.355,0.355,0.356,0.356,0.357,0.358,0.358,0.359,0.36,0.361,0.361,0.363,0.363,0.364,0.365,0.366,0.367,0.368,0.369,0.37,0.371,0.372,0.373,0.374,0.375,0.376,0.376,0.377,0.378,0.379,0.38,0.381,0.382,0.383,0.384,0.385,0.386,0.387,0.388,0.39,0.391,0.392,0.393,0.393,0.394,0.395,0.396,0.397,0.398,0.4,0.401,0.402,0.403,0.404,0.405,0.406,0.407,0.408,0,0,0,0,0,0,0,0,0,0,0,0,0,0,0,0,0,0,0,0,0,0,0,0,0,0,0,0.669,0.67,0.67,0.67,0.671,0.672,0.673,0.673,0.673,0.672,0.672,0.672,0.672,0.671,0.67,0.669,0.668,0.667,0.666,0.665,0.665,0.664,0.664,0.663,0.663,0.663,0.663,0.664,0.663,0.663,0.663,0.663,0.662,0.66,0.66,0.659,0.658,0.657,0.655,0.655,0.653,0.651,0.65,0.649,0.648,0.647,0.646,0.645,0.644,0.644,0.643,0.643,0.642,0.641,0.64,0.64,0.639,0.639,0.638,0.638,0.638,0.638,0.637,0.636,0.636,0.635,0.634,0.634,0.633,0.632,0.631,0.631,0.631,0.63,0.63,0.631,0.631,0.631,0.633,0.634,0.636,0.638,0.64,0.642,0.644,0.647,0.65,0.653,0.656,0.66,0.663,0.667,0.672,0.677,0.682,0.687,0.692,0.695,0.699,0.703,0.706,0.708,0.71,0.711,0.712,0.711,0.711,0.711,0.711,0.711,0,0,0,0,0,0,0,0,0,0,0,0,0,0,0,0,0.448,0.447,0.446,0.445,0.443,0.442,0.44,0.439,0.437,0.435,0,0.433,0.431,0.43,0.428,0.426,0.425,0.423,0.421,0.419,0.417,0.415,0.414,0.412,0.412,0.41,0.409,0.407,0.406,0.404,0.403,0.401,0.4,0.398,0.397,0.395,0.394,0.393,0.392,0.391,0.39,0.388,0.387,0.386,0.385,0.383,0.382,0.38,0.379,0.379,0.377,0.376,0.375,0.374,0.373,0.372,0.372,0.371,0.37,0.37,0.369,0.369,0.37,0.37,0.371,0.371,0.372,0.372,0.373,0.374,0.375,0.376,0.377,0.378,0.379,0.38,0.381,0.381,0.382,0.384,0.385,0.386,0.387,0.388,0.389,0.39,0.391,0.392,0.393,0.394,0.394,0.395,0.396,0.397,0.397,0.398,0.399,0.401,0.402,0.403,0.404,0.405,0.406,0.407,0,0,0,0.777,0.777,0.778,0.778,0.779,0.779,0.78,0.78,0.781,0.782,0.782,0.783,0.784,0.785,0.786,0.787,0.788,0.79,0.79,0.791,0.791,0.792,0.792,0.792,0.793,0.793,0.793,0.793,0.793,0.793,0.794,0.795,0.795,0.796,0.797,0.797,0.797,0.798,0.798,0.8,0.802,0.802,0.802,0.803,0.803,0.803,0.804,0.804,0.804,0.804,0.803,0.803,0.804,0.804,0.804,0.805,0.806,0.807,0.808,0.81,0.811,0.812,0.813,0.813,0.813,0.813,0.813,0.813,0.812,0.812,0,0,2.53,2.53,2.52,2.52,2.52,2.52,2.52,2.509,2.509,2.509,2.499,2.499,2.489,2.489,2.479,2.479,2.469,2.469,2.459,2.459,2.459,2.449,2.449,2.449,2.459,2.459,2.459,2.469,2.469,2.469,2.479,2.479,2.489,2.489,2.489,2.489,2.489,2.499,2.499,2.509,2.509,2.509,2.509,2.509,0,0,0,0,0,0,0,0,0,0,0,0,0,0,0,0,0,0,0,0.737,0.735,0.735,0.734,0.733,0.733,0.733,0.732,0.729,0.728,0.728,0.727,0.727,0.726,0.725,0.724,0.722,0.722,0.721,0.72,0.718,0.717,0.716,0.715,0.714,0.713,0.712,0.711,0.71,0.709,0.707,0.706,0.704,0.703,0.701,0.699,0.697,0.695,0.693,0.692,0.689,0.688,0.684,0,0,0,0,0,0,0,0,0,0,0.57,0.568,0.567,0.566,0.566,0.565,0.565,0.566,0.567,0.567
0.335,0.335,0.335,0.335,0.335,0.336,0.336,0.337,0.337,0.337,0.338,0.339,0.339,0.34,0.341,0.342,0.342,0.343,0.343,0.344,0.344,0.345,0.346,0.346,0.347,0.348,0.349,0.349,0.35,0.351,0.352,0.353,0.353,0.354,0.355,0.356,0.356,0.357,0.357,0.358,0.358,0.359,0.36,0.361,0.362,0.363,0.364,0.364,0.366,0.366,0.367,0.368,0.369,0.37,0.371,0.372,0.373,0.374,0.375,0.376,0.376,0.377,0.378,0.379,0.38,0.381,0.382,0.383,0.384,0.385,0.386,0.387,0.388,0.389,0.39,0.391,0.392,0.393,0.394,0.395,0.396,0.397,0.399,0.4,0.401,0.402,0.403,0.404,0.406,0.407,0.407,0.408,0.409,0,0,0,0,0,0,0,0,0,0,0,0,0,0,0,0,0,0,0,0,0,0,0,0,0,0,0.665,0.665,0.666,0.667,0.668,0.669,0.67,0.67,0.67,0.669,0.669,0.67,0.669,0.669,0.668,0.668,0.667,0.666,0.665,0.665,0.664,0.663,0.663,0.663,0.663,0.663,0.663,0.663,0.663,0.663,0.663,0.663,0.662,0.661,0.66,0.66,0.658,0.658,0.657,0.655,0.654,0.653,0.651,0.65,0.649,0.649,0.647,0.646,0.645,0.644,0.644,0.644,0.643,0.642,0.642,0.641,0.64,0.64,0.64,0.64,0.639,0.639,0.638,0.637,0.636,0.636,0.634,0.634,0.633,0.632,0.631,0.631,0.631,0.631,0.631,0.631,0.631,0.632,0.633,0.634,0.636,0.638,0.64,0.642,0.644,0.647,0.65,0.653,0.656,0.66,0.663,0.668,0.672,0.677,0.682,0.687,0.692,0.695,0.699,0.702,0.706,0.707,0.709,0.711,0.711,0.711,0.711,0.712,0.712,0.711,0,0,0,0,0,0,0,0,0,0,0,0,0,0,0,0,0.449,0.448,0.447,0.446,0.444,0.442,0.441,0.439,0.438,0.436,0.434,0.433,0.432,0.43,0.429,0.427,0.425,0.423,0.421,0.419,0.417,0.415,0.414,0.413,0.412,0.411,0.41,0.408,0.406,0.405,0.403,0.402,0.4,0.399,0.397,0.396,0.395,0.394,0.393,0.392,0.39,0.389,0.387,0.386,0.385,0.383,0.382,0.381,0.38,0.379,0.378,0.377,0.376,0.375,0.374,0.373,0.372,0.371,0.371,0.37,0.37,0.37,0.37,0.371,0.371,0.372,0.373,0.373,0.374,0.375,0.376,0.377,0.378,0.379,0.38,0.381,0.382,0.382,0.383,0.385,0.385,0.387,0.388,0.389,0.39,0.391,0.392,0.393,0.394,0.395,0.395,0.396,0.396,0.397,0.398,0.398,0.399,0.401,0.402,0.403,0.404,0.405,0.407,0.408,0,0,0,0.773,0.774,0.774,0.774,0.775,0.776,0.776,0.777,0.777,0.778,0.78,0.781,0.781,0.782,0.783,0.784,0.785,0.787,0.788,0.788,0.788,0.788,0.789,0.789,0.789,0.789,0.79,0.79,0.79,0.79,0.791,0.792,0.792,0.793,0.793,0.793,0.794,0.794,0.795,0.795,0.796,0.797,0.796,0.797,0.797,0.798,0.798,0.798,0.798,0.798,0.798,0.798,0.8,0.8,0.801,0.801,0.802,0.803,0.804,0.806,0.807,0.808,0.808,0.809,0.809,0.81,0.809,0.809,0.809,0.809,0.808,0,2.52,2.52,2.52,2.509,2.509,2.509,2.509,2.499,2.499,2.489,2.489,2.489,2.479,2.479,2.469,2.459,2.459,2.449,2.449,2.449,2.44,2.44,2.44,2.44,2.44,2.449,2.449,2.459,2.459,2.459,2.469,2.479,2.479,2.479,2.479,2.479,2.489,2.489,2.489,2.499,2.499,2.499,2.509,2.509,2.509,2.499,0,0,0,0,0,0,0,0,0,0,0,0,0,0,0,0,0,0,0,0,0.734,0.734,0.733,0.732,0.731,0.729,0.728,0.728,0.727,0.727,0.725,0.725,0.723,0.722,0.722,0.722,0.72,0.719,0.717,0.717,0.716,0.715,0.714,0.712,0.712,0.711,0.709,0.708,0.707,0.706,0.703,0.702,0.699,0,0.695,0.693,0.692,0.691,0.69,0,0,0,0,0,0,0,0.569,0.566,0.565,0.564,0.562,0.561,0.56,0.559,0.559,0.559,0.559,0.56,0.561,0.562
0,0,0.336,0.336,0.336,0.336,0.337,0.337,0.337,0.338,0.339,0.339,0.34,0.341,0.341,0.342,0.343,0.343,0.344,0.344,0.345,0.346,0.346,0.347,0.348,0.348,0.349,0.35,0.351,0.352,0.352,0.353,0.354,0.355,0.355,0.356,0.356,0.357,0.357,0.358,0.359,0.36,0.36,0.361,0.362,0.363,0.364,0.365,0.366,0.367,0.368,0.368,0.369,0.37,0.371,0.372,0.373,0.374,0.375,0.376,0.376,0.377,0.378,0.379,0.38,0.381,0.382,0.382,0.384,0.385,0.385,0.387,0.388,0.389,0.39,0.391,0.392,0.393,0.394,0.395,0.396,0.397,0.399,0.4,0.401,0.402,0.404,0.404,0.406,0.406,0.407,0.408,0.409,0.41,0,0,0,0,0,0,0,0,0,0,0,0,0,0,0,0,0,0,0,0,0,0,0,0,0.661,0.662,0.662,0.663,0.663,0.665,0.665,0.666,0.666,0.667,0.667,0.666,0.667,0.667,0.667,0.666,0.666,0.665,0.665,0.665,0.664,0.664,0.663,0.663,0.663,0.663,0.663,0.663,0.663,0.663,0.663,0.663,0.663,0.662,0.662,0.661,0.66,0.659,0.658,0.658,0.656,0.655,0.653,0.652,0.651,0.65,0.649,0.649,0.648,0.646,0.646,0.646,0.645,0.644,0.643,0.642,0.642,0.642,0.641,0.641,0.64,0.64,0.64,0.638,0.638,0.637,0.636,0.634,0.634,0.633,0.633,0.632,0.631,0.631,0.631,0.631,0.631,0.632,0.633,0.634,0.635,0.637,0.639,0.641,0.643,0.646,0.648,0.651,0.653,0.657,0.66,0.663,0.667,0.672,0.676,0.682,0.686,0.69,0.694,0.696,0.7,0.703,0.706,0.708,0.709,0.71,0.71,0.71,0.712,0.712,0,0,0,0,0,0,0,0,0,0,0,0,0,0,0,0,0,0.45,0.449,0.448,0.446,0.445,0.443,0.441,0.439,0.438,0.436,0.434,0.433,0.432,0.431,0.429,0.427,0,0.424,0.422,0.42,0.418,0.416,0.415,0.413,0.412,0.411,0.41,0.409,0.407,0.405,0.404,0.402,0.401,0.399,0.398,0.397,0.395,0.394,0.393,0.392,0.391,0.389,0.388,0.386,0.385,0.383,0.382,0.381,0.38,0.379,0.378,0.377,0.376,0.375,0.374,0.373,0.372,0.372,0.371,0.371,0.371,0.371,0.371,0.371,0.372,0.373,0.373,0.374,0.375,0.376,0.377,0.378,0.379,0.38,0.381,0.382,0.382,0.383,0.384,0.385,0.386,0.388,0.389,0.39,0.391,0.392,0.393,0.394,0.395,0.396,0.396,0.396,0.397,0.398,0.398,0.399,0.4,0.401,0.403,0.404,0.405,0.406,0.407,0,0,0,0,0.769,0.77,0.77,0.77,0.771,0.771,0.772,0.773,0.773,0.774,0.775,0.776,0.777,0.778,0.78,0.781,0.782,0.783,0.785,0.785,0.785,0.785,0.786,0.786,0.786,0.786,0.787,0.787,0.787,0.787,0.788,0.788,0.789,0.79,0.79,0.791,0.791,0.791,0.791,0.792,0.793,0.793,0.793,0.794,0.794,0.794,0.795,0.795,0.795,0.794,0.794,0.795,0.795,0.795,0.796,0.796,0.797,0.797,0.798,0.801,0.802,0.803,0.803,0.803,0.804,0.804,0.805,0.805,0.805,0.804,0.804,0,2.509,2.509,2.499,2.499,2.499,2.499,2.489,2.489,2.479,2.479,2.479,2.479,2.469,2.459,2.459,2.449,2.44,2.44,2.44,2.43,2.43,2.421,2.421,2.43,2.43,2.43,2.44,2.449,2.449,2.459,2.459,2.469,2.469,2.479,2.479,2.479,2.479,2.479,2.479,2.489,2.489,2.499,2.499,2.499,2.499,2.489,2.489,2.489,2.489,0,0,0,0,0,0,0,0,0,0,0,0,0,0,0,0,0,0,0,0,0.732,0.731,0.73,0.728,0.728,0.726,0.726,0.725,0.724,0.723,0.722,0.722,0.721,0.72,0.719,0.718,0.717,0.717,0.716,0.715,0.714,0.712,0.712,0.71,0.709,0.707,0.706,0.704,0.703,0.7,0.699,0.696,0.695,0.693,0.692,0,0,0,0,0,0,0,0,0.561,0.559,0.558,0.557,0.556,0.555,0.554,0.554,0.554,0.554,0.554,0.555,0.556,0.557
0,0,0,0.336,0.337,0.337,0.337,0.338,0.338,0.339,0.339,0.34,0.34,0.341,0.342,0.342,0.343,0.344,0.344,0.345,0.345,0.346,0.347,0.347,0.348,0.349,0.349,0.35,0.351,0.352,0.353,0.354,0.354,0.355,0.356,0.356,0.357,0.357,0.358,0.358,0.359,0.36,0.361,0.361,0.362,0.363,0.364,0.365,0.366,0.367,0.368,0.369,0.37,0.371,0.371,0.372,0.373,0.374,0.375,0.376,0.377,0.377,0.378,0.379,0.38,0.381,0.382,0.383,0.384,0.385,0.385,0.387,0.388,0.389,0.39,0.391,0.392,0.393,0.394,0.395,0.396,0.397,0.399,0.4,0.401,0.403,0.403,0.404,0.406,0.406,0.407,0.408,0.409,0.409,0.41,0.411,0.412,0.413,0,0,0,0,0,0,0,0,0,0,0,0,0,0,0,0,0,0,0,0.656,0.658,0.658,0.659,0.659,0.66,0.661,0.663,0.663,0.664,0.664,0.664,0.664,0.664,0.665,0.665,0.664,0.664,0.664,0.663,0.663,0.663,0.663,0.663,0.662,0.662,0.662,0.662,0.663,0.663,0.663,0.663,0.663,0.663,0.663,0.662,0.661,0.66,0.66,0.659,0.658,0.657,0.655,0.655,0.653,0.652,0.651,0.651,0.649,0.649,0.648,0.647,0.646,0.646,0.645,0.644,0.644,0.643,0.643,0.642,0.642,0.642,0.641,0.64,0.64,0.638,0.638,0.636,0.635,0.634,0.634,0.633,0.632,0.632,0.631,0.631,0.631,0.632,0.632,0.633,0.634,0.636,0.638,0.64,0.642,0.644,0.646,0.649,0.651,0.654,0.657,0.66,0.663,0.667,0.671,0.676,0.68,0.684,0.687,0.689,0.69,0.693,0.695,0.696,0.698,0.699,0.7,0.702,0.703,0.707,0,0,0,0,0,0,0,0,0,0,0,0,0,0,0,0,0,0,0.451,0.45,0,0.446,0.445,0.443,0.441,0.44,0.438,0.436,0.435,0.434,0.432,0.431,0.429,0.428,0.426,0.424,0.422,0.42,0.419,0.417,0.415,0.414,0.413,0.412,0.41,0.409,0.407,0.406,0.404,0.403,0.401,0.4,0.398,0.397,0.396,0.395,0.394,0.393,0.391,0.389,0.388,0.386,0.385,0.384,0.382,0.381,0.38,0.38,0.379,0.378,0.377,0.376,0.374,0.374,0.373,0.372,0.372,0.371,0.371,0.371,0.372,0.372,0.373,0.373,0.374,0.375,0.376,0.376,0.377,0.378,0.38,0.381,0.382,0.383,0.383,0.384,0.385,0.386,0.387,0.388,0.389,0.391,0.392,0.393,0.394,0.395,0.396,0.397,0.397,0.397,0.398,0.399,0.399,0.4,0.4,0.402,0.403,0.404,0.405,0.406,0.407,0,0,0.765,0.765,0.765,0.766,0.766,0.767,0.767,0.768,0.769,0.769,0.769,0.77,0.771,0.773,0.774,0.775,0.777,0.778,0.779,0.781,0.782,0.782,0.782,0.782,0.783,0.783,0.783,0.783,0.784,0.783,0.784,0.785,0.785,0.785,0.786,0.787,0.787,0.788,0.788,0.788,0.789,0.789,0.79,0.79,0.79,0.791,0.791,0.791,0.792,0.792,0.792,0.792,0.792,0.792,0.792,0.792,0.793,0.793,0.793,0.794,0.794,0.796,0.796,0.797,0.797,0.798,0.798,0.798,0.801,0.8,0.8,0.801,0.8,0.801,0,2.489,2.489,2.489,2.489,2.479,2.479,2.469,2.469,2.459,2.459,2.449,2.449,2.44,2.44,2.43,2.43,2.43,2.421,2.421,2.421,2.421,2.421,2.421,2.421,2.421,2.43,2.44,2.44,2.449,2.449,2.459,2.459,2.469,2.469,2.469,2.469,2.469,2.479,2.479,2.479,2.489,2.489,2.489,2.489,2.489,2.479,2.479,2.479,2.479,2.469,2.469,0,0,0,0,0,0,0,0,0,0,0,0,0,0,0,0,0,0,0,0,0,0.727,0.726,0.724,0.725,0.724,0.722,0.722,0.722,0.721,0.72,0.719,0.718,0.718,0.717,0.717,0.716,0.714,0.713,0.712,0.711,0.71,0.707,0.707,0.705,0.703,0.701,0.699,0.697,0.695,0.694,0.693,0.692,0,0,0,0,0,0,0,0.554,0.553,0.553,0.552,0.552,0.551,0.551,0.551,0.55,0.551,0.551,0.552,0.553,0.554
0,0,0,0,0.337,0.338,0.338,0.338,0.339,0.339,0.34,0.34,0.341,0.341,0.342,0.343,0.343,0.344,0.345,0.345,0.346,0.347,0.347,0.348,0.348,0.349,0.35,0.351,0.351,0.352,0.353,0.354,0.355,0.355,0.356,0.356,0.357,0.358,0.358,0.359,0.359,0.36,0.361,0.362,0.363,0.363,0.364,0.365,0.366,0.367,0.368,0.369,0.37,0.371,0.372,0.373,0.374,0.374,0.375,0.376,0.377,0.378,0.379,0.379,0.38,0.381,0.382,0.383,0.384,0.385,0.385,0.386,0.387,0.389,0.389,0.39,0.391,0.392,0.393,0.395,0.396,0.397,0.398,0.4,0.401,0.403,0.404,0.404,0.406,0.407,0.407,0.408,0.409,0.409,0.41,0.411,0.412,0.413,0.414,0.414,0.415,0.415,0.416,0,0,0,0,0,0,0,0,0,0,0,0,0,0.653,0.654,0.654,0.655,0.655,0.657,0.657,0.658,0.659,0.66,0.66,0.661,0.661,0.661,0.662,0.663,0.663,0.662,0.662,0.662,0.662,0.662,0.662,0.661,0.661,0.661,0.661,0.661,0.661,0.662,0.662,0.662,0.662,0.663,0.663,0.663,0.662,0.661,0.66,0.66,0.659,0.658,0.658,0.656,0.655,0.654,0.653,0.652,0.651,0.651,0.649,0.649,0.648,0.647,0.647,0.646,0.646,0.645,0.644,0.644,0.644,0.644,0.643,0.642,0.642,0.64,0.64,0.638,0.637,0.636,0.635,0.634,0.634,0.633,0.633,0.632,0.632,0.632,0.632,0.633,0.633,0.634,0.636,0.638,0.64,0.642,0.644,0.646,0.649,0.651,0.653,0.656,0.66,0.662,0.665,0.668,0.671,0.674,0.677,0.679,0.679,0.679,0.68,0.68,0.681,0.683,0.685,0.686,0.689,0.69,0.692,0.694,0,0,0,0,0,0,0,0,0,0,0,0,0,0,0,0,0.451,0.451,0.45,0,0.447,0.446,0.443,0.442,0.44,0.439,0.437,0.435,0.434,0.433,0.431,0.429,0.428,0.426,0.425,0.423,0.421,0.419,0.417,0.416,0.415,0.414,0.412,0.411,0.409,0.408,0.406,0.404,0.403,0.402,0.4,0.399,0.398,0.396,0.395,0.394,0.393,0.391,0.39,0.388,0.386,0.385,0.384,0.383,0.382,0.381,0.38,0.379,0.378,0.377,0.376,0.375,0.374,0.373,0.372,0.372,0.372,0.372,0.372,0.372,0.373,0.373,0.374,0.375,0.376,0.376,0.377,0.378,0.379,0.38,0.382,0.383,0.384,0.385,0.385,0.386,0.387,0.388,0.389,0.39,0.392,0.393,0.394,0.395,0.396,0.397,0.398,0.398,0.399,0.399,0.4,0.401,0.401,0.402,0.402,0.404,0.404,0.405,0.406,0,0,0,0.761,0.762,0.762,0.763,0.762,0.763,0.764,0.764,0.765,0.766,0.767,0.768,0.769,0.77,0.771,0.772,0.774,0.775,0.776,0.778,0.779,0.78,0.779,0.78,0.78,0.78,0.78,0.78,0.78,0.78,0.78,0.781,0.782,0.782,0.783,0.784,0.785,0.785,0.785,0.786,0.786,0.786,0.787,0.787,0.787,0.788,0.788,0.789,0.789,0.789,0.789,0.789,0.789,0.79,0.79,0.79,0.79,0.79,0.791,0.792,0.792,0.793,0.792,0.793,0.793,0.793,0.794,0.795,0.795,0.796,0.796,0.796,0.797,0.798,0.798,0,2.469,2.469,2.469,2.469,2.459,2.459,2.449,2.44,2.44,2.44,2.43,2.421,2.421,2.411,2.411,2.411,2.402,2.402,2.402,2.402,2.402,2.411,2.411,2.421,2.421,2.43,2.43,2.44,2.44,2.449,2.449,2.459,2.459,2.459,2.459,2.459,2.469,2.469,2.479,2.479,2.479,2.479,2.479,2.479,2.479,2.479,2.469,2.459,2.459,2.459,2.459,2.459,0,0,0,0,0,0,0,0,0,0,0,0,0,0,0,0,0,0,0,0,0.725,0.724,0.723,0.722,0.722,0.721,0.721,0.721,0.72,0.72,0.719,0.718,0.717,0.717,0.717,0.716,0.714,0.713,0.712,0.711,0.709,0.707,0.706,0.704,0.702,0.699,0.698,0.696,0.695,0.693,0.692,0,0,0,0,0,0,0,0.551,0.55,0.55,0.55,0.55,0.55,0.549,0.549,0.549,0.549,0.55,0.55,0.551,0.552
0,0.338,0.338,0.338,0.338,0.338,0.339,0.339,0.339,0.34,0.34,0.341,0.341,0.342,0.343,0.343,0.344,0.344,0.345,0.346,0.346,0.347,0.348,0.348,0.349,0.35,0.35,0.351,0.352,0.353,0.353,0.354,0.355,0.356,0.356,0.357,0.357,0.358,0.358,0.359,0.36,0.36,0.361,0.362,0.363,0.364,0.364,0.366,0.367,0.368,0.368,0.369,0.37,0.371,0.372,0.373,0.374,0.374,0.375,0.376,0.377,0.378,0.379,0.38,0.38,0.381,0.382,0.383,0.384,0.385,0.385,0.386,0.387,0.388,0.389,0.39,0.391,0.392,0.393,0.394,0.396,0.397,0.398,0.4,0.401,0.402,0.403,0.404,0.405,0.406,0.407,0.408,0.408,0.409,0.41,0.411,0.412,0.413,0.413,0.414,0.415,0.416,0.417,0.417,0,0,0,0,0,0,0,0,0,0,0,0,0.651,0.651,0.652,0.652,0.653,0.653,0.655,0.655,0.656,0.657,0.658,0.658,0.659,0.659,0.66,0.66,0.66,0.66,0.66,0.66,0.66,0.66,0.66,0.66,0.66,0.66,0.66,0.66,0.66,0.66,0.661,0.662,0.661,0.662,0.662,0.662,0.662,0.661,0.66,0.66,0.659,0.658,0.658,0.657,0.656,0.655,0.653,0.653,0.652,0.651,0.65,0.649,0.649,0.648,0.648,0.647,0.646,0.646,0.646,0.646,0.645,0.644,0.644,0.644,0.642,0.641,0.64,0.638,0.638,0.636,0.636,0.635,0.634,0.633,0.633,0.633,0.633,0.633,0.633,0.633,0.634,0.634,0.636,0.637,0.639,0.641,0.644,0.645,0.647,0.649,0.652,0.654,0.657,0.659,0.66,0.663,0.665,0.667,0.668,0.668,0.668,0.667,0.667,0,0,0,0,0,0,0,0,0,0,0,0,0,0,0,0,0,0,0,0,0,0,0,0,0.451,0.452,0.452,0.45,0.449,0.448,0.446,0.444,0.442,0.44,0.439,0.437,0.435,0.434,0.433,0.431,0.43,0.428,0.427,0.425,0.423,0.422,0.42,0.418,0.417,0.416,0.415,0.413,0.412,0.41,0.408,0.407,0.405,0.403,0.402,0.401,0.4,0.398,0.397,0.396,0.394,0.393,0.391,0.39,0.388,0.387,0.385,0.384,0.383,0.382,0.381,0.38,0.379,0.379,0.377,0.376,0.375,0.374,0.374,0.373,0.373,0.372,0.372,0.373,0.373,0.374,0.374,0.375,0.376,0.376,0.377,0.378,0.379,0.38,0.381,0.382,0.383,0.384,0.385,0.386,0.387,0.388,0.389,0.39,0.391,0.393,0.394,0.395,0.396,0.397,0.398,0.399,0.399,0.4,0.401,0.402,0.402,0.402,0.403,0.404,0,0,0,0,0,0,0,0,0.758,0.759,0.759,0.76,0.759,0.761,0.762,0.762,0.763,0.764,0.764,0.766,0.768,0.769,0.77,0.771,0.773,0.774,0.776,0.777,0.777,0.777,0.777,0.777,0.778,0.777,0.777,0.777,0.778,0.777,0.778,0.779,0.78,0.78,0.781,0.781,0.782,0.782,0.782,0.783,0.783,0.784,0.785,0.785,0.785,0.786,0.786,0.787,0.788,0.788,0.787,0.788,0.788,0.788,0.788,0.789,0.789,0.789,0.789,0.789,0.79,0.79,0.79,0.79,0.79,0.791,0.791,0.792,0.793,0.793,0.794,0.794,0.794,0.795,0.796,2.469,2.459,2.459,2.449,2.449,2.44,2.43,2.43,2.421,2.411,2.411,2.411,2.402,2.402,2.402,2.392,2.392,2.392,2.392,2.392,2.392,2.402,2.402,2.411,2.411,2.421,2.421,2.43,2.43,2.44,2.44,2.44,2.449,2.449,2.449,2.449,2.459,2.459,2.459,2.459,2.469,2.469,2.469,2.469,2.469,2.459,2.459,2.459,2.459,2.449,2.449,2.449,2.459,2.459,0,0,0,0,0,0,0,0,0,0,0,0,0,0,0,0,0,0,0,0,0.722,0.722,0.721,0.721,0.721,0.721,0.72,0.72,0.719,0.719,0.718,0.718,0.717,0.717,0.716,0.714,0.713,0.712,0.71,0.708,0.707,0.704,0.703,0.7,0.698,0.696,0.695,0.695,0.692,0,0,0,0,0,0,0,0.551,0.55,0.55,0.55,0.55,0.55,0.549,0.549,0.549,0.549,0.549,0.55,0.55,0.551
0,0.339,0.339,0.339,0.339,0.339,0.339,0.34,0.34,0.34,0.341,0.341,0.342,0.342,0.343,0.343,0.344,0.345,0.346,0.346,0.347,0.348,0.348,0.349,0.35,0.35,0.351,0.352,0.352,0.353,0.354,0.354,0.355,0.356,0.356,0.357,0.358,0.358,0.359,0.36,0.36,0.361,0.362,0.362,0.363,0.364,0.365,0.366,0.367,0.368,0.369,0.369,0.37,0.371,0.372,0.373,0.374,0.375,0.376,0.376,0.377,0.378,0.379,0.38,0.381,0.381,0.382,0.383,0.384,0.385,0.386,0.387,0.388,0.388,0.389,0.39,0.391,0.392,0.393,0.394,0.395,0.397,0.398,0.399,0.401,0.402,0.403,0.404,0.405,0.406,0.407,0.407,0.408,0.409,0.41,0.41,0.412,0.412,0.413,0.415,0.415,0.416,0.417,0.418,0.419,0,0,0,0,0,0,0,0,0,0,0.648,0.648,0.649,0.649,0.65,0.651,0.651,0.652,0.653,0.653,0.655,0.655,0.655,0.657,0.658,0.658,0.658,0.658,0.658,0.658,0.658,0.658,0.658,0.658,0.658,0.659,0.658,0.659,0.659,0.659,0.66,0.66,0.66,0.66,0.66,0.661,0.661,0.661,0.661,0.66,0.66,0.659,0.658,0.658,0.657,0.656,0.655,0.654,0.653,0.653,0.651,0.651,0.65,0.649,0.649,0.649,0.648,0.647,0.647,0.646,0.646,0.646,0.646,0.645,0.644,0.644,0.642,0.641,0.64,0.638,0.638,0.636,0.636,0.634,0.634,0.633,0.633,0.633,0.633,0.633,0.633,0.634,0.634,0.636,0.637,0.639,0.64,0.642,0.644,0.646,0.648,0.65,0.651,0.653,0.654,0.655,0.655,0.657,0.657,0.658,0.657,0.656,0,0,0,0,0.651,0,0,0,0,0,0,0,0,0,0,0,0,0,0,0,0,0,0,0,0,0.452,0.452,0.453,0.452,0.451,0.45,0.448,0.446,0.444,0.442,0.441,0.439,0.437,0.436,0.434,0.433,0.432,0.43,0.428,0.427,0.425,0.424,0.422,0.421,0.419,0.418,0.417,0.415,0.414,0.412,0.41,0.409,0.407,0.406,0.404,0.402,0.401,0.4,0.399,0.397,0.396,0.395,0.393,0.392,0.39,0.388,0.387,0.385,0.385,0.384,0.383,0.381,0.381,0.38,0.379,0.378,0.377,0.376,0.375,0.374,0.374,0.373,0.373,0.373,0.373,0.374,0.374,0.375,0.376,0.376,0.377,0.378,0.379,0.38,0.381,0.382,0.383,0.384,0.385,0.386,0.387,0.388,0.389,0.39,0.391,0.392,0.394,0.395,0.396,0.397,0.399,0.399,0.4,0.401,0.402,0.402,0.403,0.403,0.404,0.404,0.405,0,0,0,0,0,0,0,0.755,0.755,0.756,0.757,0.757,0.757,0.758,0.759,0.76,0.761,0.761,0.762,0.764,0.765,0.767,0.768,0.769,0.771,0.772,0.774,0.775,0.775,0.775,0.776,0.775,0.775,0.774,0.774,0.775,0.774,0.775,0.775,0.776,0.776,0.777,0.778,0.778,0.779,0.779,0.779,0.779,0.78,0.781,0.781,0.781,0.783,0.783,0.784,0.784,0.785,0.785,0.785,0.786,0.786,0.786,0.786,0.787,0.787,0.787,0.787,0.787,0.788,0.788,0.787,0.787,0.788,0.788,0.789,0.789,0.79,0.791,0.791,0.792,0.792,0.792,0.793,0,2.44,2.43,2.43,2.421,2.421,2.411,2.402,2.402,2.392,2.392,2.383,2.383,2.383,2.383,2.383,2.383,2.383,2.383,2.383,2.383,2.392,2.392,2.402,2.402,2.411,2.411,2.421,2.43,2.43,2.43,2.43,2.44,2.44,2.44,2.44,2.449,2.449,2.449,2.459,2.459,2.459,2.459,2.449,2.449,2.449,2.449,2.449,2.449,2.449,2.449,2.449,2.449,2.449,2.459,2.459,0,0,0,0,0,0,0,0,0,0,0,0,0,0,0,0,0,0,0,0,0.72,0.721,0.721,0.721,0.72,0.72,0.719,0.718,0.718,0.718,0.717,0.717,0.716,0.715,0.713,0.712,0.71,0.707,0.706,0.704,0.702,0.699,0.698,0.695,0.695,0.694,0,0,0,0,0,0,0,0,0.552,0.551,0.551,0.55,0.55,0.55,0.55,0.549,0.549,0.549,0.55,0.55,0.55,0.551
0,0.34,0.34,0.34,0.34,0.34,0.34,0.34,0.34,0.341,0.341,0.342,0.342,0.343,0.343,0.344,0.345,0.345,0.346,0.347,0.348,0.348,0.349,0.349,0.35,0.351,0.352,0.352,0.353,0.353,0.354,0.355,0.355,0.356,0.357,0.357,0.358,0.359,0.359,0.36,0.361,0.361,0.362,0.363,0.364,0.364,0.365,0.366,0.367,0.368,0.369,0.37,0.37,0.371,0.372,0.373,0.374,0.375,0.376,0.377,0.378,0.378,0.379,0.38,0.381,0.382,0.383,0.384,0.384,0.385,0.386,0.387,0.388,0.388,0.389,0.39,0.391,0.392,0.393,0.394,0.395,0.397,0.398,0.399,0.401,0.402,0.403,0.404,0.405,0.406,0.406,0.407,0.408,0.409,0.409,0.41,0.412,0.413,0.413,0.414,0.415,0.416,0.417,0.418,0.419,0.42,0.422,0.423,0,0,0,0,0,0,0,0.646,0.647,0.647,0.647,0.648,0.649,0.649,0.65,0.651,0.651,0.653,0.653,0.654,0.655,0.655,0.656,0.656,0.657,0.657,0.657,0.657,0.657,0.658,0.658,0.658,0.658,0.658,0.658,0.658,0.658,0.659,0.659,0.659,0.66,0.66,0.66,0.66,0.66,0.66,0.659,0.659,0.658,0.658,0.658,0.657,0.656,0.655,0.655,0.654,0.653,0.652,0.651,0.651,0.65,0.649,0.649,0.649,0.648,0.648,0.647,0.647,0.647,0.646,0.646,0.646,0.644,0.643,0.642,0.64,0.639,0.638,0.637,0.636,0.635,0.634,0.634,0.634,0.633,0.633,0.633,0.633,0.634,0.634,0.636,0.637,0.638,0.64,0.642,0.643,0.644,0.645,0.646,0.647,0.648,0.648,0.648,0.647,0.648,0.647,0.647,0.646,0.644,0,0.641,0.639,0.638,0.636,0.635,0.635,0,0,0,0,0,0,0,0,0,0,0,0,0,0,0,0,0,0,0,0,0.453,0.453,0.451,0.45,0.449,0.446,0.444,0.442,0.441,0.439,0.437,0.436,0.434,0.433,0.432,0.43,0.428,0.427,0.426,0.424,0.423,0.421,0.42,0.419,0.418,0.416,0.415,0.413,0.411,0.409,0.408,0.406,0.404,0.403,0.402,0.401,0.399,0.398,0.396,0.395,0.393,0.392,0.39,0.389,0.387,0.386,0.385,0.384,0.383,0.382,0.381,0.38,0.38,0.379,0.377,0.376,0.376,0.375,0.374,0.374,0.374,0.374,0.374,0.375,0.375,0.376,0.376,0.377,0.378,0.379,0.38,0.381,0.382,0.383,0.384,0.385,0.386,0.387,0.388,0.389,0.39,0.391,0.392,0.393,0.395,0.396,0.397,0.398,0.4,0.401,0.401,0.402,0.403,0.404,0.404,0.405,0.406,0.406,0.406,0,0,0,0,0,0,0,0.752,0.753,0.753,0.753,0.755,0.755,0.756,0.757,0.758,0.758,0.759,0.76,0.761,0.763,0.765,0.766,0.768,0.769,0.77,0.772,0.773,0.773,0.773,0.773,0.773,0.773,0.772,0.772,0.772,0.771,0.771,0.772,0.772,0.773,0.774,0.775,0.776,0.776,0.777,0.777,0.778,0.778,0.778,0.779,0.779,0.781,0.782,0.782,0.782,0.783,0.783,0.784,0.784,0.785,0.785,0.785,0.785,0.786,0.786,0.786,0.785,0.785,0.785,0.784,0.784,0.784,0.785,0.785,0.786,0.787,0.788,0.789,0.789,0.79,0.791,0.791,0.791,0,2.421,2.411,2.402,2.402,2.392,2.383,2.374,2.374,2.374,2.374,2.365,2.365,2.365,2.365,2.365,2.374,2.374,2.374,2.374,2.383,2.392,2.392,2.392,2.402,2.411,2.411,2.421,2.421,2.43,2.43,2.43,2.43,2.43,2.43,2.44,2.44,2.44,2.44,2.44,2.44,2.44,2.44,2.44,2.449,2.44,2.44,2.44,2.44,2.44,2.44,2.449,2.449,2.449,2.459,2.459,2.469,0,0,0,0,0,0,0,0,0,0,0,0,0,0,0,0,0,0,0,0,0.719,0.72,0.72,0.72,0.719,0.719,0.719,0.718,0.717,0.717,0.716,0.715,0.714,0.712,0.709,0.706,0.704,0.703,0.7,0.698,0.695,0.694,0.693,0.692,0,0,0,0,0,0,0,0,0.552,0.552,0.551,0.551,0.551,0.551,0.55,0.55,0.55,0.55,0.55,0.55,0.551,0.551
0,0,0.341,0.34,0.341,0.341,0.341,0.341,0.341,0.342,0.342,0.342,0.343,0.343,0.344,0.345,0.345,0.346,0.347,0.347,0.348,0.349,0.349,0.35,0.351,0.352,0.352,0.353,0.353,0.354,0.354,0.355,0.356,0.357,0.357,0.358,0.358,0.359,0.36,0.36,0.361,0.362,0.363,0.363,0.364,0.365,0.366,0.367,0.367,0.368,0.369,0.37,0.371,0.371,0.372,0.373,0.374,0.375,0.376,0.377,0.378,0.379,0.379,0.38,0.381,0.382,0.383,0.384,0.385,0.385,0.386,0.387,0.388,0.388,0.389,0.39,0.391,0.392,0.393,0.394,0.395,0.396,0.398,0.399,0.401,0.402,0.403,0.404,0.404,0.405,0.406,0.407,0.408,0.408,0.41,0.41,0.411,0.412,0.413,0.414,0.415,0.416,0.417,0.418,0.419,0.42,0.422,0.423,0.425,0,0,0,0,0,0,0.645,0.645,0.646,0.646,0.646,0.647,0.648,0.649,0.649,0.65,0.651,0.652,0.653,0.653,0.654,0.654,0.654,0.655,0.655,0.655,0.655,0.656,0.656,0.656,0.657,0.657,0.657,0.657,0.657,0.658,0.658,0.658,0.658,0.658,0.658,0.658,0.658,0.658,0.658,0.658,0.658,0.658,0.657,0.656,0.656,0.655,0.655,0.654,0.653,0.653,0.652,0.651,0.651,0.65,0.649,0.649,0.649,0.648,0.648,0.648,0.648,0.648,0.647,0.647,0.646,0.646,0.644,0.642,0.641,0.64,0.639,0.638,0.636,0.635,0.634,0.634,0.634,0.633,0.633,0.633,0.633,0.633,0.634,0.635,0.635,0.636,0.637,0.638,0.639,0.639,0.64,0.64,0.639,0.639,0.639,0.638,0.638,0.637,0.636,0.636,0.634,0.633,0.631,0.627,0.626,0.624,0.622,0.62,0.62,0.619,0.616,0.611,0,0,0,0,0,0,0,0,0,0,0,0,0,0,0,0,0,0.454,0.453,0.452,0.451,0.45,0.447,0.446,0.443,0.441,0.439,0.438,0.436,0.434,0.433,0.431,0.43,0.428,0.427,0.426,0.425,0.423,0.422,0.421,0.419,0.418,0.417,0.415,0.413,0.412,0.41,0.408,0.407,0.405,0.404,0.402,0.401,0.4,0.398,0.397,0.395,0.394,0.392,0.391,0.389,0.388,0.386,0.385,0.385,0.384,0.383,0.382,0.381,0.38,0.379,0.378,0.377,0.376,0.376,0.375,0.375,0.375,0.375,0.375,0.375,0.376,0.377,0.377,0.378,0.379,0.38,0.381,0.382,0.383,0.384,0.385,0.385,0.387,0.387,0.388,0.389,0.39,0.391,0.392,0.394,0.395,0.397,0.398,0.399,0.401,0.402,0.403,0.403,0.404,0.405,0.406,0.407,0.407,0.407,0.408,0.408,0,0,0,0,0,0,0.749,0.749,0.75,0.751,0.752,0.753,0.753,0.754,0.755,0.755,0.756,0.757,0.758,0.76,0.762,0.764,0.765,0.767,0.768,0.769,0.769,0.77,0.77,0.77,0.77,0.77,0.77,0.769,0.769,0.769,0.769,0.769,0.769,0.771,0.771,0.773,0.773,0.774,0.775,0.776,0.776,0.777,0.777,0.778,0.778,0.779,0.78,0.781,0.781,0.781,0.782,0.782,0.783,0.784,0.784,0.784,0.784,0.784,0.784,0.784,0.784,0.783,0.783,0.783,0.782,0.782,0.783,0.783,0.784,0.784,0.785,0.786,0.787,0.788,0.789,0.789,0.789,0,0,2.392,2.383,2.383,2.374,2.365,2.365,2.356,2.356,2.356,2.356,2.356,2.356,2.356,2.356,2.356,2.356,2.365,2.374,2.374,2.383,2.392,2.392,2.402,2.411,2.411,2.421,2.421,2.421,2.421,2.421,2.421,2.421,2.421,2.421,2.43,2.43,2.43,2.43,2.43,2.43,2.43,2.43,2.421,2.421,2.43,2.43,2.421,2.43,2.43,2.43,2.44,2.449,2.449,2.449,2.459,2.469,0,0,0,0,0,0,0,0,0,0,0,0,0,0,0,0,0,0,0,0,0.719,0.719,0.719,0.719,0.719,0.719,0.718,0.717,0.717,0.716,0.715,0.714,0.712,0.709,0.706,0.704,0.702,0.7,0.697,0.695,0.694,0.693,0,0,0,0,0,0,0,0,0,0.553,0.553,0.553,0.552,0.552,0.552,0.551,0.551,0.551,0.551,0.551,0.551,0.551,0.551
0,0,0,0.341,0.341,0.341,0.341,0.342,0.342,0.342,0.343,0.343,0.344,0.344,0.345,0.345,0.346,0.347,0.347,0.348,0.349,0.349,0.35,0.351,0.351,0.352,0.353,0.353,0.354,0.354,0.355,0.356,0.356,0.357,0.358,0.358,0.359,0.36,0.36,0.361,0.362,0.362,0.363,0.364,0.364,0.365,0.366,0.367,0.368,0.369,0.369,0.37,0.371,0.372,0.373,0.374,0.374,0.375,0.376,0.377,0.378,0.379,0.38,0.38,0.381,0.382,0.383,0.384,0.385,0.385,0.386,0.387,0.388,0.388,0.389,0.39,0.391,0.392,0.392,0.394,0.395,0.396,0.398,0.399,0.4,0.401,0.402,0.403,0.404,0.405,0.406,0.407,0.408,0.408,0.409,0.41,0.411,0.412,0.413,0.414,0.415,0.417,0.417,0.418,0.419,0.421,0.422,0.423,0.425,0.426,0,0,0,0,0,0.644,0.644,0.644,0.645,0.646,0.646,0.646,0.647,0.648,0.649,0.649,0.651,0.651,0.651,0.652,0.653,0.653,0.653,0.653,0.654,0.655,0.655,0.655,0.655,0.655,0.655,0.656,0.656,0.655,0.656,0.656,0.657,0.657,0.657,0.658,0.658,0.657,0.658,0.657,0.657,0.657,0.656,0.655,0.655,0.655,0.655,0.654,0.654,0.653,0.653,0.652,0.651,0.651,0.65,0.649,0.649,0.649,0.648,0.649,0.649,0.648,0.648,0.648,0.647,0.646,0.646,0.644,0.643,0.642,0.64,0.64,0.638,0.637,0.636,0.635,0.634,0.633,0.633,0.632,0.632,0.631,0.631,0.631,0.631,0.631,0.631,0.632,0.633,0.633,0.633,0.633,0.632,0.631,0.63,0.63,0.629,0.628,0.627,0.625,0.625,0.623,0.621,0.619,0.618,0.616,0.615,0.612,0.612,0.611,0.61,0.609,0.608,0.607,0.606,0.606,0,0,0,0,0,0,0,0,0,0,0,0,0,0,0.454,0.454,0.453,0.452,0.45,0.448,0.446,0.444,0.442,0.44,0.438,0.436,0.435,0.433,0.431,0.43,0.429,0.428,0.426,0.425,0.424,0.423,0.421,0.42,0.419,0.417,0.416,0.414,0.412,0.41,0.409,0.407,0.406,0.404,0.403,0.402,0.4,0.399,0.397,0.396,0.394,0.393,0.391,0.39,0.388,0.387,0.386,0.385,0.384,0.383,0.382,0.381,0.38,0.38,0.378,0.378,0.377,0.376,0.376,0.375,0.375,0.375,0.376,0.376,0.377,0.378,0.378,0.379,0.38,0.381,0.382,0.383,0.384,0.384,0.385,0.386,0.387,0.388,0.389,0.389,0.39,0.391,0.393,0.394,0.395,0.397,0.398,0.4,0.402,0.403,0.404,0.405,0.406,0.407,0.407,0.408,0.409,0.409,0.41,0.41,0.41,0,0,0,0,0.743,0.743,0.744,0.745,0.747,0.749,0.75,0.751,0.751,0.752,0.753,0.753,0.754,0.755,0.757,0.759,0.76,0.762,0.763,0.765,0.766,0.767,0.767,0.767,0.767,0.767,0.767,0.767,0.767,0.766,0.766,0.767,0.767,0.768,0.769,0.769,0.77,0.77,0.771,0.772,0.774,0.774,0.775,0.776,0.776,0.777,0.777,0.778,0.779,0.779,0.78,0.781,0.781,0.781,0.782,0.782,0.782,0.782,0.782,0.783,0.782,0.782,0.782,0.781,0.781,0.781,0.781,0.781,0.781,0.781,0.782,0.783,0.784,0.785,0.785,0.787,0.787,0.787,0.787,0,0,2.365,2.356,2.347,2.347,2.338,2.338,2.338,2.338,2.338,2.338,2.338,2.347,2.347,2.347,2.347,2.356,2.365,2.374,2.374,2.383,2.392,2.392,2.402,2.402,2.411,2.421,2.421,2.421,2.421,2.421,2.421,2.421,2.421,2.421,2.421,2.421,2.411,2.411,2.421,2.411,2.411,2.411,2.411,2.411,2.411,2.411,2.421,2.421,2.421,2.43,2.44,2.44,2.449,2.449,2.459,2.459,2.469,2.469,0,0,0,0,0,0,0,0,0,0,0,0,0,0,0,0,0,0,0,0,0,0.719,0.719,0.719,0.718,0.717,0.717,0.716,0.714,0.712,0.708,0.705,0.703,0.702,0.699,0.697,0.695,0,0,0,0,0,0,0,0,0,0,0.556,0.555,0.555,0.554,0.553,0.553,0.552,0.552,0.552,0.552,0.551,0.551,0.551,0.551,0.552
0,0,0.342,0.342,0.342,0.342,0.342,0.343,0.343,0.343,0.343,0.344,0.344,0.345,0.345,0.346,0.347,0.347,0.348,0.349,0.35,0.35,0.35,0.351,0.352,0.352,0.353,0.354,0.354,0.355,0.355,0.356,0.357,0.357,0.358,0.359,0.359,0.36,0.361,0.361,0.362,0.363,0.364,0.364,0.365,0.366,0.367,0.367,0.368,0.369,0.37,0.371,0.371,0.372,0.373,0.374,0.375,0.376,0.377,0.377,0.378,0.379,0.38,0.38,0.381,0.382,0.383,0.384,0.385,0.386,0.386,0.387,0.388,0.388,0.389,0.39,0.391,0.392,0.393,0.393,0.395,0.396,0.397,0.399,0.4,0.401,0.402,0.403,0.404,0.405,0.406,0.407,0.407,0.408,0.409,0.41,0.411,0.412,0.413,0.414,0.415,0.417,0.417,0.419,0.42,0.421,0.422,0.423,0.425,0.426,0.427,0,0,0,0,0,0.643,0.644,0.644,0.644,0.645,0.645,0.646,0.646,0.647,0.648,0.649,0.649,0.65,0.65,0.651,0.651,0.652,0.652,0.653,0.653,0.653,0.653,0.653,0.654,0.655,0.655,0.655,0.655,0.655,0.655,0.655,0.655,0.655,0.655,0.655,0.655,0.656,0.655,0.655,0.655,0.655,0.654,0.654,0.654,0.653,0.653,0.653,0.653,0.652,0.651,0.651,0.65,0.65,0.649,0.649,0.649,0.648,0.648,0.648,0.649,0.648,0.648,0.647,0.646,0.646,0.644,0.643,0.642,0.64,0.64,0.638,0.637,0.636,0.634,0.633,0.632,0.63,0.629,0.628,0.627,0.626,0.625,0.625,0.625,0.625,0.625,0.625,0.625,0.625,0.625,0.624,0.623,0.622,0.621,0.62,0.619,0.618,0.616,0.615,0.614,0.614,0.613,0.612,0.611,0.611,0.611,0.61,0.609,0.609,0.608,0.608,0.606,0.605,0.605,0.604,0,0,0,0,0,0,0,0,0,0,0,0,0,0.454,0.454,0.453,0.452,0.45,0.448,0.446,0.444,0.442,0.44,0.439,0.437,0.435,0.433,0.432,0.43,0.429,0.428,0.427,0.426,0.424,0.423,0.422,0.421,0.419,0.418,0.416,0.415,0.413,0.411,0.409,0.408,0.406,0.405,0.403,0.402,0.401,0.399,0.398,0.396,0.395,0.393,0.391,0.39,0.389,0.388,0.387,0.386,0.385,0.384,0.383,0.382,0.381,0.38,0.379,0.378,0.377,0.377,0.376,0.376,0.376,0.376,0.376,0.377,0.378,0.378,0.379,0.38,0.381,0.382,0.383,0.384,0.385,0.385,0.386,0.387,0.388,0.389,0.389,0.39,0.391,0.392,0.393,0.395,0,0.397,0.399,0.401,0.402,0.403,0.405,0.406,0.407,0.408,0.409,0.41,0.41,0.411,0.411,0.412,0,0,0,0,0.737,0.739,0.74,0.741,0.742,0.743,0.745,0.746,0.746,0.747,0.749,0.75,0.75,0.752,0.753,0.754,0.755,0.757,0.759,0.76,0.761,0.762,0.763,0.764,0.763,0.763,0.763,0.763,0.763,0.763,0.763,0.763,0.764,0.764,0.765,0.766,0.767,0.769,0.769,0.769,0.769,0.771,0.771,0.773,0.774,0.773,0.774,0.775,0.776,0.777,0.778,0.778,0.778,0.779,0.779,0.78,0.78,0.78,0.781,0.781,0.781,0.781,0.781,0.781,0.78,0.78,0.78,0.78,0.78,0.78,0.78,0.78,0.781,0.782,0.783,0.783,0.783,0.785,0.785,0.785,0.785,2.347,2.338,2.338,2.338,2.329,2.338,2.329,2.329,2.329,2.329,2.329,2.329,2.338,2.338,2.347,2.347,2.347,2.356,2.365,2.374,2.383,2.383,2.392,2.402,2.402,2.411,2.421,2.421,2.421,2.421,2.421,2.421,2.421,2.421,2.411,2.411,2.411,2.402,2.402,2.402,2.402,2.402,2.402,2.402,2.402,2.402,2.402,2.402,2.402,2.411,2.421,2.43,2.43,2.44,2.449,2.449,2.459,2.459,2.459,2.459,2.459,0,0,0,0,0,0,0,0,0,0,0,0,0,0,0,0,0,0,0,0,0,0,0,0,0.717,0.717,0.715,0,0,0,0,0,0,0.697,0,0,0,0,0,0,0,0,0,0.56,0.558,0.558,0.557,0.556,0.555,0.555,0.554,0.554,0.553,0.553,0.552,0.552,0.552,0.552,0.552,0.552
0,0.343,0.343,0.343,0.343,0.343,0.343,0.343,0.343,0.344,0.344,0.344,0.345,0.345,0.346,0.347,0.347,0.348,0.349,0.35,0.35,0.351,0.351,0.352,0.352,0.353,0.354,0.354,0.355,0.355,0.356,0.357,0.357,0.358,0.358,0.359,0.36,0.36,0.361,0.362,0.363,0.363,0.364,0.365,0.366,0.366,0.367,0.368,0.369,0.369,0.37,0.371,0.372,0.373,0.374,0.374,0.375,0.376,0.377,0.378,0.379,0.379,0.38,0.38,0.381,0.382,0.383,0.384,0.385,0.385,0.386,0.387,0.388,0.389,0.389,0.39,0.391,0.392,0.393,0.394,0.395,0.396,0.397,0.399,0.4,0.401,0.402,0.403,0.403,0.404,0.406,0.406,0.407,0.408,0.409,0.41,0.411,0.412,0.413,0.414,0.415,0.416,0.418,0.419,0.42,0.421,0.422,0.423,0.425,0.426,0.426,0.427,0.428,0,0,0,0,0.642,0.643,0.644,0.644,0.644,0.645,0.645,0.646,0.646,0.647,0.648,0.648,0.649,0.649,0.649,0.65,0.651,0.651,0.651,0.651,0.651,0.652,0.652,0.653,0.653,0.653,0.653,0.653,0.653,0.653,0.653,0.653,0.653,0.653,0.653,0.654,0.653,0.653,0.653,0.653,0.653,0.653,0.653,0.653,0.652,0.652,0.651,0.651,0.651,0.65,0.649,0.649,0.649,0.649,0.648,0.647,0.648,0.648,0.647,0.647,0.646,0.646,0.646,0.644,0.644,0.642,0.641,0.64,0.639,0.638,0.636,0.634,0.633,0.631,0.629,0.627,0.625,0.624,0.622,0.62,0.62,0.619,0.619,0.619,0.619,0.619,0.618,0.618,0.617,0.617,0.615,0.614,0.613,0.613,0.612,0.611,0.61,0.61,0.609,0.609,0.609,0.609,0.609,0.609,0.609,0.609,0.609,0.608,0.608,0.606,0.605,0.604,0.604,0.603,0.602,0,0,0,0,0,0,0,0,0,0,0,0,0.454,0.454,0.453,0.452,0.451,0.449,0.447,0.445,0.443,0.441,0.439,0.437,0.435,0.434,0.432,0.431,0.429,0.428,0.427,0.426,0.425,0.424,0.422,0.421,0.42,0.419,0.417,0.415,0.413,0.412,0.41,0.409,0.407,0.405,0.404,0.402,0.401,0.399,0.398,0.397,0.395,0.393,0.392,0.39,0.389,0.388,0.387,0.386,0.385,0.384,0.384,0.383,0.381,0.38,0.38,0.379,0.378,0.377,0.377,0.377,0.377,0.377,0.377,0.378,0.378,0.379,0.38,0.381,0.382,0.383,0.384,0.385,0.385,0.386,0.387,0.388,0.388,0.389,0.39,0.39,0.391,0.392,0.393,0.395,0.396,0.398,0.4,0.402,0.403,0.404,0.406,0.407,0.409,0.409,0.41,0.411,0.411,0.412,0.412,0.412,0,0,0,0,0.735,0.735,0.736,0.737,0.739,0.74,0.742,0.743,0.743,0.744,0.745,0.746,0.747,0.748,0.75,0.752,0.753,0.755,0.756,0.757,0.758,0.759,0.76,0.759,0.76,0.76,0.759,0.76,0.76,0.76,0.759,0.76,0.76,0.761,0.762,0.763,0.763,0.764,0.764,0.766,0.766,0.768,0.768,0.769,0.77,0.77,0.771,0.772,0.773,0.774,0.775,0.775,0.775,0.777,0.777,0.778,0.778,0.778,0.779,0.779,0.779,0.779,0.779,0.779,0.779,0.78,0.78,0.779,0.779,0.779,0.779,0.779,0.78,0.781,0.781,0.781,0.782,0.781,0.783,0.783,0.783,0,2.329,2.329,2.329,2.329,2.329,2.32,2.32,2.32,2.32,2.32,2.32,2.329,2.329,2.338,2.338,2.347,2.347,2.356,2.365,2.374,2.383,2.392,2.402,2.402,2.411,2.421,2.421,2.421,2.421,2.421,2.421,2.411,2.411,2.402,2.402,2.402,2.392,2.392,2.392,2.383,2.383,2.383,2.383,2.383,2.383,2.392,2.392,2.392,2.402,2.411,2.421,2.421,2.43,2.44,2.449,2.449,2.449,2.449,2.449,2.449,2.44,2.44,0,0,0,0,0,0,0,0,0,0,0,0,0,0,0,0,0,0,0,0,0,0,0,0,0,0,0,0,0,0.674,0.658,0.645,0,0,0,0,0,0,0,0,0.564,0.561,0.56,0.559,0.558,0.557,0.556,0.555,0.555,0.554,0.554,0.553,0.553,0.553,0.552,0.552,0.552,0.552
0,0.343,0.343,0.343,0.343,0.344,0.344,0.344,0.344,0.345,0.345,0.345,0.346,0.346,0.347,0.347,0.348,0.349,0.349,0.35,0.351,0.351,0.352,0.352,0.353,0.354,0.354,0.355,0.355,0.356,0.356,0.357,0.358,0.358,0.359,0.359,0.36,0.361,0.361,0.362,0.363,0.364,0.364,0.365,0.366,0.367,0.367,0.368,0.369,0.37,0.371,0.371,0.372,0.373,0.374,0.375,0.376,0.376,0.377,0.378,0.379,0.38,0.38,0.381,0.382,0.382,0.383,0.384,0.385,0.386,0.386,0.387,0.388,0.389,0.39,0.39,0.391,0.392,0.393,0.394,0.395,0.396,0.397,0.398,0.399,0.401,0.402,0.402,0.403,0.404,0.405,0.406,0.407,0.408,0.409,0.41,0.411,0.412,0.413,0.414,0.415,0.417,0.418,0.419,0.42,0.421,0.422,0.423,0.425,0.425,0.426,0.427,0.428,0,0,0,0,0.641,0.642,0.643,0.643,0.644,0.644,0.644,0.644,0.645,0.646,0.646,0.646,0.646,0.647,0.647,0.647,0.648,0.649,0.649,0.649,0.649,0.649,0.65,0.65,0.651,0.651,0.651,0.651,0.651,0.651,0.651,0.651,0.651,0.652,0.651,0.652,0.652,0.652,0.652,0.652,0.651,0.651,0.651,0.651,0.651,0.651,0.65,0.65,0.649,0.649,0.649,0.648,0.648,0.648,0.647,0.647,0.647,0.647,0.646,0.646,0.645,0.644,0.644,0.643,0.642,0.642,0.64,0.639,0.638,0.637,0.634,0.632,0.63,0.627,0.625,0.622,0.62,0.618,0.617,0.615,0.614,0.613,0.612,0.612,0.611,0.611,0.611,0.611,0.61,0.609,0.609,0.608,0.608,0.607,0.606,0.606,0.606,0.606,0.606,0.606,0.606,0.606,0.607,0.606,0.607,0.606,0.606,0.606,0.606,0.605,0.604,0.604,0.603,0.603,0.602,0,0,0,0,0,0,0,0,0,0,0,0.456,0.455,0.454,0.453,0.452,0.451,0.449,0.447,0.446,0.444,0.442,0.439,0.438,0.436,0.434,0.432,0.431,0.43,0.428,0.428,0.426,0.425,0.424,0.423,0.422,0.42,0.419,0.417,0.416,0.414,0.412,0.411,0.409,0.407,0.406,0.404,0.403,0.401,0.4,0.398,0.397,0.396,0.394,0.393,0.391,0.39,0.389,0.388,0.387,0.386,0.385,0.384,0.383,0.382,0.381,0.38,0.379,0.379,0.378,0.378,0.377,0.377,0.378,0.378,0.378,0.379,0.38,0.38,0.381,0.382,0.383,0.384,0.385,0.386,0.387,0.388,0.388,0.389,0.39,0.391,0.391,0.392,0.393,0.394,0.395,0.397,0.399,0.401,0.402,0.404,0.406,0.407,0.408,0.409,0.41,0.411,0.411,0.412,0.412,0.413,0.413,0,0,0,0.73,0.731,0.732,0.733,0.735,0.736,0.737,0.738,0.739,0.74,0.742,0.743,0.743,0.744,0.746,0.747,0.749,0.75,0.752,0.753,0.753,0.754,0.755,0.756,0.756,0.755,0.755,0.755,0.756,0.756,0.756,0.756,0.756,0.756,0.757,0.758,0.758,0.759,0.76,0.76,0.761,0.762,0.763,0.764,0.765,0.766,0.767,0.768,0.769,0.77,0.771,0.772,0.773,0.773,0.774,0.775,0.775,0.775,0.776,0.777,0.777,0.777,0.777,0.777,0.778,0.778,0.779,0.778,0.778,0.778,0.779,0.778,0.779,0.779,0.779,0.779,0.78,0.781,0.781,0.781,0.78,0.78,0,0,2.311,2.311,2.32,2.311,2.32,2.311,2.311,2.32,2.32,2.32,2.32,2.32,2.329,2.338,2.338,2.347,2.356,2.365,2.365,2.383,2.383,2.402,2.402,2.411,2.411,2.411,2.421,2.421,2.411,2.411,2.411,2.402,2.402,2.392,2.392,2.383,2.383,2.383,2.383,2.383,2.374,2.374,2.374,2.374,2.374,2.383,2.383,2.392,2.402,2.402,2.421,2.421,2.43,2.44,2.44,2.449,2.449,2.449,2.44,2.43,2.43,2.421,2.421,2.411,0,0,0,0,0,0,0,0,0,0,0,0,0,0,0,0,0,0,0,0,0,0,0,0,0,0,0,0,0,0,0,0,0.571,0.569,0.568,0.568,0.566,0.565,0.564,0.562,0.56,0.559,0.558,0.557,0.557,0.555,0.555,0.554,0.554,0.553,0.553,0.552,0.552,0.552,0.552
0,0.344,0.344,0.344,0.344,0.344,0.345,0.345,0.345,0.345,0.346,0.346,0.346,0.347,0.347,0.348,0.349,0.349,0.35,0.351,0.351,0.352,0.352,0.353,0.354,0.354,0.355,0.355,0.356,0.356,0.357,0.358,0.358,0.359,0.359,0.36,0.361,0.361,0.362,0.363,0.363,0.364,0.365,0.366,0.366,0.367,0.368,0.369,0.369,0.37,0.371,0.372,0.373,0.374,0.374,0.375,0.376,0.377,0.377,0.378,0.379,0.38,0.38,0.381,0.382,0.383,0.383,0.384,0.385,0.386,0.387,0.388,0.388,0.389,0.39,0.391,0.391,0.392,0.393,0.394,0.395,0.396,0.397,0.398,0.399,0.4,0.401,0.402,0.403,0.404,0.405,0.406,0.407,0.408,0.409,0.41,0.411,0.412,0.413,0.414,0.415,0.416,0.417,0.419,0.42,0.421,0.422,0.423,0.425,0.426,0.426,0.427,0.428,0.429,0,0.431,0,0,0,0.642,0.642,0.643,0.643,0.644,0.644,0.644,0.644,0.644,0.644,0.644,0.644,0.645,0.645,0.645,0.646,0.646,0.646,0.646,0.646,0.647,0.648,0.648,0.648,0.649,0.649,0.649,0.649,0.649,0.649,0.649,0.649,0.65,0.65,0.65,0.65,0.65,0.65,0.65,0.65,0.649,0.65,0.65,0.649,0.649,0.649,0.649,0.648,0.648,0.647,0.647,0.647,0.647,0.646,0.646,0.646,0.645,0.644,0.644,0.644,0.642,0.642,0.642,0.64,0.638,0.636,0.634,0.632,0.629,0.626,0.623,0.62,0.618,0.615,0.614,0.611,0.61,0.609,0.608,0,0.607,0.606,0.605,0.605,0.604,0.604,0.604,0.604,0.603,0.603,0.603,0.603,0.603,0.603,0.603,0.603,0.603,0.604,0.604,0.605,0.605,0.605,0.605,0.605,0.605,0.605,0.604,0.604,0.603,0.602,0.602,0.602,0.602,0,0,0,0,0,0,0,0,0,0,0,0.456,0.455,0.454,0.453,0.452,0.451,0.45,0.448,0.446,0.444,0.442,0.44,0.438,0.436,0.434,0.433,0.431,0.43,0.429,0.428,0.427,0.425,0.424,0.423,0.422,0.421,0.419,0.418,0.416,0.415,0.413,0.411,0.41,0.408,0.406,0.404,0.403,0.402,0.4,0.399,0.397,0.396,0.395,0.393,0.392,0.391,0.39,0.388,0.388,0.386,0.385,0.385,0.384,0.383,0.382,0.381,0.38,0.379,0.379,0.378,0.378,0.378,0.378,0.378,0.379,0.379,0.38,0.381,0.382,0.383,0.384,0.385,0.386,0.387,0.388,0.388,0.389,0.389,0.39,0.391,0.391,0.392,0.393,0.394,0.396,0.398,0.4,0.402,0.403,0.405,0.407,0.408,0.409,0.41,0.411,0.411,0.412,0.412,0.413,0.413,0.414,0,0,0.728,0.728,0.729,0.73,0.73,0.732,0.733,0.735,0.735,0.736,0.737,0.738,0.739,0.741,0.742,0.743,0.744,0.746,0.747,0.748,0.749,0.75,0.752,0.752,0.752,0.752,0.752,0.752,0.752,0.752,0.753,0.753,0.753,0.753,0.753,0.753,0.754,0.755,0.755,0.755,0.755,0.757,0.757,0.758,0.759,0.761,0.762,0.763,0.763,0.765,0.767,0.768,0.769,0.769,0.769,0.77,0.771,0.772,0.773,0.772,0.773,0.774,0.774,0.775,0.775,0.775,0.776,0.777,0.778,0.778,0.778,0.778,0.778,0.778,0.779,0.779,0.779,0.779,0.779,0.778,0.778,0.778,0.777,0,0,2.311,2.311,2.311,2.311,2.311,2.311,2.311,2.311,2.311,2.311,2.311,2.32,2.32,2.329,2.338,2.338,2.347,2.356,2.365,2.374,2.383,2.392,2.402,2.411,2.411,2.411,2.411,2.411,2.411,2.411,2.402,2.402,2.392,2.392,2.383,2.383,2.374,2.374,2.374,2.365,2.365,2.365,2.365,2.365,2.374,2.374,2.374,2.383,2.392,2.402,2.402,2.411,2.421,2.43,2.43,2.44,2.44,2.44,2.43,2.421,2.421,2.411,2.411,2.411,0,0,0,0,0,0,0,0,0,0,0,0,0,0,0,0,0,0,0,0,0,0,0,0,0,0,0,0,0,0,0,0.572,0.571,0.57,0.569,0.568,0.568,0.566,0.564,0.563,0.561,0.56,0.559,0.558,0.557,0.556,0.555,0.554,0.553,0.553,0.552,0.552,0.552,0.551,0.551
0,0,0.345,0.345,0.345,0.345,0.345,0.346,0.346,0.346,0.347,0.347,0.347,0.347,0.348,0.349,0.349,0.35,0.351,0.351,0.352,0.353,0.353,0.353,0.354,0.355,0.355,0.356,0.356,0.357,0.358,0.358,0.359,0.359,0.36,0.361,0.361,0.362,0.363,0.363,0.364,0.365,0.365,0.366,0.367,0.367,0.368,0.369,0.37,0.371,0.372,0.372,0.373,0.374,0.375,0.375,0.376,0.377,0.378,0.378,0.379,0.38,0.38,0.381,0.382,0.383,0.384,0.384,0.385,0.386,0.387,0.388,0.389,0.389,0.39,0.391,0.392,0.393,0.393,0.394,0.395,0.396,0.397,0.398,0.399,0.4,0.401,0.402,0.403,0.404,0.405,0.406,0.407,0.408,0.409,0.41,0.411,0.412,0.413,0.414,0.415,0.416,0.417,0.418,0.419,0.42,0.421,0.423,0.424,0.425,0.426,0.427,0.428,0.429,0,0.43,0.431,0.431,0,0,0,0,0.642,0.642,0.642,0.643,0.643,0.643,0.642,0.643,0.642,0.643,0.643,0.644,0.644,0.644,0.644,0.644,0.644,0.644,0.645,0.646,0.646,0.646,0.646,0.646,0.646,0.646,0.646,0.646,0.647,0.647,0.648,0.647,0.648,0.648,0.648,0.649,0.648,0.648,0.648,0.648,0.648,0.648,0.647,0.647,0.646,0.646,0.646,0.646,0.646,0.646,0.646,0.645,0.644,0.644,0.643,0.643,0.642,0.641,0.64,0.638,0.636,0.633,0.631,0.628,0.625,0.621,0.619,0.615,0.613,0.611,0.608,0.607,0.605,0.603,0.603,0.601,0.6,0.6,0.6,0.599,0.599,0.599,0.599,0.599,0.599,0.599,0.599,0.6,0.6,0.6,0.601,0.601,0.601,0.601,0.602,0.602,0.602,0.603,0.603,0.603,0.603,0.603,0.603,0.602,0.602,0.602,0.601,0.601,0.6,0.6,0,0,0,0,0,0,0,0,0,0,0,0,0.455,0.454,0.454,0.452,0.452,0.45,0.449,0.447,0.445,0.443,0.441,0.438,0.436,0.434,0.433,0.431,0.43,0.429,0.428,0.427,0.426,0.425,0.423,0.422,0.421,0.419,0.418,0.417,0.415,0.413,0.412,0.41,0.409,0.407,0.405,0.403,0.402,0.401,0.399,0.398,0.396,0.395,0.394,0.392,0.391,0.39,0.389,0.388,0.387,0.386,0.385,0.384,0.383,0.382,0.381,0.38,0.38,0.379,0.379,0.379,0.379,0.379,0.379,0.379,0.38,0.38,0.381,0.382,0.383,0.384,0.385,0.386,0.387,0.388,0.389,0.39,0.39,0.391,0.392,0.392,0.393,0.394,0.395,0.397,0.399,0.4,0.402,0.404,0.406,0.407,0.408,0.41,0.41,0.411,0.412,0.412,0.413,0.413,0.413,0,0,0,0.726,0.726,0.727,0.728,0.728,0.728,0.73,0.731,0.732,0.733,0.734,0.735,0.736,0.737,0.739,0.74,0.742,0.743,0.743,0.745,0.745,0.746,0.747,0.747,0.748,0.747,0.747,0.747,0.747,0.748,0.749,0.748,0.748,0.749,0.749,0.75,0.751,0.751,0.751,0.752,0.752,0.753,0.753,0.753,0.754,0.755,0.757,0.758,0.759,0.761,0.763,0.764,0.765,0.766,0.767,0.768,0.769,0.769,0.769,0.769,0.77,0.771,0.771,0.772,0.772,0.772,0.774,0.775,0.775,0.776,0.776,0.777,0.777,0.778,0.778,0.777,0.777,0.777,0.777,0.776,0.777,0.776,0.776,0.776,0,2.311,2.311,2.303,2.303,2.311,2.311,2.311,2.303,2.311,2.311,2.311,2.311,2.32,2.32,2.329,2.338,2.347,2.347,2.365,2.365,2.383,2.383,2.392,2.402,2.402,2.411,2.411,2.411,2.402,2.402,2.392,2.392,2.392,2.383,2.374,2.374,2.365,2.365,2.365,2.365,2.365,2.356,2.356,2.356,2.365,2.365,2.374,2.374,2.383,2.392,2.392,2.402,2.411,2.421,2.421,2.421,2.421,2.421,2.421,2.421,2.411,2.411,2.402,2.392,0,0,0,0,0,0,0,0,0,0,0,0,0,0,0,0,0,0,0,0,0,0,0,0,0,0,0,0,0,0,0.574,0.572,0.571,0.57,0.57,0.569,0.569,0.568,0.566,0.565,0.563,0.561,0.559,0.558,0.557,0.555,0.554,0.553,0.553,0.552,0.551,0.551,0.551,0.55,0.55
0,0,0,0.346,0.346,0.346,0.347,0.347,0.348,0.348,0.348,0.348,0.348,0.349,0.349,0.35,0.35,0.351,0.351,0.352,0.353,0.353,0.354,0.354,0.355,0.355,0.356,0.357,0.357,0.358,0.358,0.359,0.36,0.36,0.361,0.361,0.362,0.363,0.363,0.364,0.365,0.366,0.366,0.367,0.367,0.368,0.369,0.37,0.371,0.371,0.372,0.373,0.374,0.374,0.375,0.376,0.376,0.377,0.378,0.379,0.379,0.38,0.38,0.381,0.382,0.383,0.384,0.385,0.385,0.386,0.387,0.388,0.389,0.39,0.39,0.391,0.392,0.393,0.394,0.395,0.396,0.397,0.397,0.398,0.399,0.4,0.401,0.402,0.403,0.404,0.405,0.406,0.407,0.408,0.409,0.41,0.411,0.412,0.413,0.413,0.415,0.416,0.417,0.418,0.419,0.42,0.421,0.422,0.424,0.425,0.426,0.427,0.428,0.429,0,0.43,0.431,0.432,0.432,0,0,0,0,0,0.641,0.642,0.642,0.641,0.641,0.641,0.641,0.641,0.641,0.641,0.641,0.642,0.642,0.642,0.642,0.642,0.642,0.643,0.643,0.644,0.644,0.644,0.644,0.644,0.644,0.644,0.644,0.644,0.645,0.645,0.645,0.646,0.646,0.646,0.646,0.646,0.646,0.646,0.646,0.646,0.646,0.646,0.645,0.645,0.645,0.645,0.645,0.644,0.644,0.644,0.643,0.642,0.642,0.641,0.639,0.637,0.635,0.633,0.629,0.625,0.622,0.619,0.616,0.613,0.61,0.608,0.606,0.603,0.602,0.6,0.599,0.597,0.596,0.595,0.595,0.594,0.595,0.595,0.595,0.595,0.595,0.596,0.596,0.596,0.596,0.597,0.597,0.597,0.597,0.598,0.599,0.599,0.599,0.6,0.6,0.6,0.6,0.6,0.601,0.601,0.6,0.6,0.6,0.6,0.599,0.599,0.599,0.599,0.599,0,0,0,0,0,0,0,0,0,0,0,0.455,0.454,0.453,0.453,0.452,0.451,0.449,0.448,0.446,0.443,0.441,0.439,0.437,0.435,0.433,0.432,0.43,0.429,0.428,0.427,0.426,0.425,0.424,0.423,0.421,0.42,0.418,0.417,0.415,0.413,0.412,0.41,0.409,0.407,0.406,0.404,0.403,0.401,0.4,0.398,0.397,0.396,0.394,0.393,0.392,0.391,0.39,0.389,0.388,0.387,0.385,0.385,0.384,0.383,0.382,0.381,0.38,0.38,0.38,0.379,0.379,0.379,0.38,0.38,0.38,0.381,0.382,0.383,0.384,0.385,0.386,0.387,0.388,0.389,0.39,0.391,0.391,0.392,0.392,0.393,0.394,0.395,0.397,0.398,0.4,0.402,0.403,0.405,0.407,0.408,0.409,0.41,0.411,0.412,0.412,0.413,0.413,0.413,0.414,0,0,0.722,0.723,0.723,0.724,0.725,0.725,0.727,0.728,0.728,0.729,0.73,0.731,0.732,0.734,0.734,0.735,0.737,0.738,0.74,0.74,0.741,0.742,0.743,0.743,0.743,0.743,0.743,0.743,0.743,0.743,0.744,0.744,0.744,0.744,0.745,0.745,0.746,0.747,0.747,0.747,0.747,0.747,0.748,0.748,0.748,0.749,0.75,0.752,0.753,0.754,0.755,0.756,0.758,0.759,0.76,0.761,0.763,0.763,0.764,0.765,0.766,0.767,0.768,0.768,0.769,0.769,0.77,0.771,0.773,0.773,0.774,0.774,0.774,0.775,0.776,0.775,0.775,0.775,0.774,0.774,0.774,0.773,0.773,0.773,0.772,0.773,0,2.303,2.303,2.303,2.303,2.303,2.303,2.303,2.303,2.303,2.303,2.311,2.311,2.32,2.32,2.329,2.338,2.347,2.356,2.365,2.374,2.383,2.392,2.392,2.392,2.402,2.402,2.402,2.402,2.392,2.383,2.383,2.383,2.374,2.374,2.365,2.365,2.356,2.356,2.356,2.356,2.356,2.356,2.356,2.356,2.356,2.365,2.365,2.374,2.374,2.383,2.392,2.392,2.402,2.411,2.411,2.411,2.411,2.411,2.411,2.402,2.402,2.392,2.392,2.383,2.383,2.374,0,0,0,0,0,0,0,0,0,0,0,0,0,0,0,0,0,0,0,0,0,0,0,0,0,0,0,0.574,0.573,0.572,0.571,0.571,0.571,0.57,0.569,0.568,0.566,0.564,0.562,0.56,0.558,0.556,0.554,0.553,0.552,0.551,0.551,0.55,0.55,0.549,0.549,0.549
0,0,0,0,0.347,0.347,0.348,0.348,0.348,0.348,0.348,0.349,0.349,0.349,0.35,0.35,0.351,0.352,0.352,0.353,0.353,0.354,0.354,0.355,0.355,0.356,0.356,0.357,0.357,0.358,0.359,0.36,0.36,0.361,0.361,0.362,0.363,0.363,0.364,0.365,0.365,0.366,0.367,0.367,0.368,0.369,0.369,0.37,0.371,0.372,0.373,0.373,0.374,0.375,0.376,0.376,0.376,0.377,0.378,0.379,0.38,0.38,0.381,0.382,0.382,0.383,0.384,0.385,0.385,0.386,0.387,0.388,0.389,0.39,0.391,0.392,0.392,0.393,0.394,0.395,0.396,0.397,0.398,0.398,0.399,0.4,0.401,0.402,0.403,0.404,0.405,0.406,0.407,0.408,0.409,0.41,0.411,0.412,0.413,0.413,0.414,0.415,0.417,0.417,0.419,0.419,0.421,0.422,0.423,0.425,0.425,0.426,0.428,0.429,0,0.43,0.431,0.431,0.432,0,0,0,0,0,0.64,0.64,0.64,0.64,0.64,0.639,0.639,0.638,0.638,0.639,0.639,0.639,0.639,0.64,0.64,0.64,0.64,0.641,0.641,0.641,0.641,0.641,0.641,0.641,0.642,0.642,0.642,0.642,0.642,0.642,0.643,0.644,0.644,0.644,0.644,0.644,0.644,0.644,0.644,0.644,0.644,0.644,0.644,0.644,0.644,0.644,0.644,0.644,0.643,0.642,0.642,0.642,0.64,0.637,0.635,0.632,0.628,0.624,0.62,0.616,0.612,0,0.607,0,0,0,0.599,0.597,0.595,0.594,0.593,0.592,0.592,0.591,0.591,0.59,0.59,0.59,0.59,0.591,0.591,0.591,0.592,0.592,0.593,0.593,0.594,0.595,0.595,0.596,0.596,0.596,0.597,0.597,0.598,0.598,0.599,0.599,0.599,0.599,0.599,0.599,0.599,0.598,0.598,0.597,0.597,0.597,0.597,0,0,0,0,0,0,0,0,0,0.456,0,0.454,0.454,0.454,0.453,0.452,0.451,0.45,0.448,0.446,0.444,0.442,0.439,0.438,0.436,0.434,0.432,0.431,0.43,0.428,0.428,0.427,0.425,0.424,0.423,0.421,0.42,0.418,0.417,0.415,0.413,0.412,0.411,0.409,0.408,0.406,0.404,0.403,0.402,0.4,0.399,0.397,0.396,0.395,0.394,0.392,0.391,0.39,0.389,0.388,0.387,0.386,0.385,0.384,0.383,0.382,0.381,0.381,0.38,0.38,0.38,0.38,0.38,0.38,0.38,0.381,0.382,0.383,0.384,0.385,0.386,0.387,0.388,0.389,0.39,0.391,0.392,0.392,0.393,0.394,0.394,0.395,0.396,0.398,0.399,0.401,0.402,0.404,0.406,0.407,0.409,0.41,0.411,0.412,0.412,0.412,0.413,0.413,0.414,0,0,0,0.721,0.722,0.722,0.722,0.722,0.724,0.724,0.724,0.726,0.727,0.728,0.728,0.729,0.73,0.732,0.733,0.734,0.735,0.736,0.737,0.737,0.737,0.738,0.739,0.739,0.739,0.738,0.738,0.739,0.739,0.741,0.741,0.741,0.742,0.742,0.742,0.743,0.743,0.743,0.743,0.743,0.743,0.743,0.743,0.743,0.744,0.745,0.746,0.747,0.748,0.75,0.752,0.753,0.754,0.755,0.757,0.758,0.758,0.76,0.761,0.762,0.764,0.764,0.766,0.767,0.767,0.768,0.769,0.769,0.77,0.771,0.771,0.771,0.772,0.773,0.772,0.772,0.772,0.771,0.77,0.77,0.77,0.77,0.77,0.769,0.769,0.77,0,2.303,2.303,2.303,2.303,2.303,2.294,2.303,2.303,2.303,2.303,2.311,2.311,2.32,2.32,2.329,2.338,2.347,2.356,2.365,2.374,2.374,2.383,2.392,2.392,2.392,2.392,2.383,2.383,2.383,2.374,2.374,2.365,2.356,2.356,2.356,2.356,2.347,2.347,2.347,2.347,2.347,2.347,2.356,2.356,2.356,2.356,2.365,2.374,2.374,2.383,2.392,2.392,2.392,2.392,2.402,2.402,2.402,2.392,2.402,2.392,2.392,2.383,2.374,2.374,2.374,0,0,0,0,0,0,0,0,0,0,0,0,0,0,0,0,0,0,0,0,0,0,0,0,0,0,0,0.572,0.572,0.572,0.572,0.572,0.572,0.572,0.572,0.57,0.569,0.566,0.564,0.561,0.558,0.556,0.554,0.552,0.551,0.55,0.549,0.548,0.548,0.548,0.547,0.547
0,0,0,0,0.348,0.348,0.349,0.349,0.349,0.349,0.35,0.35,0.35,0.35,0.351,0.351,0.352,0.352,0.353,0.354,0.354,0.355,0.355,0.355,0.356,0.356,0.357,0.357,0.358,0.358,0.359,0.36,0.361,0.361,0.362,0.363,0.364,0.364,0.365,0.365,0.366,0.367,0.367,0.368,0.368,0.369,0.37,0.371,0.371,0.372,0.373,0.374,0.374,0.375,0.376,0.376,0.377,0.378,0.378,0.379,0.38,0.38,0.381,0.382,0.382,0.383,0.384,0.385,0.386,0.387,0.387,0.389,0.39,0.39,0.391,0.392,0.393,0.394,0.394,0.395,0.396,0.397,0.398,0.399,0.399,0.4,0.401,0.402,0.403,0.404,0.406,0.406,0.408,0.409,0.41,0.411,0.412,0.412,0.413,0.414,0.414,0.415,0.416,0.417,0.418,0.419,0.42,0.422,0.423,0.424,0.425,0.426,0.428,0.428,0.429,0.43,0.431,0.431,0.432,0.433,0.434,0,0,0,0,0,0.639,0.638,0.638,0.637,0.637,0.636,0.636,0.636,0.636,0.636,0.636,0.637,0.637,0.638,0.638,0.638,0.638,0.638,0.639,0.638,0.638,0.639,0.639,0.639,0.64,0.64,0.64,0.64,0.64,0.642,0.642,0.642,0.642,0.642,0.642,0.643,0.643,0.643,0.643,0.642,0.642,0.642,0.642,0.642,0.642,0.642,0.642,0.641,0.64,0.638,0.636,0.631,0.627,0.623,0.619,0.614,0,0,0,0,0.598,0.596,0.595,0.593,0.592,0.591,0.59,0.589,0.588,0.588,0.587,0.587,0.587,0.587,0.587,0.587,0.587,0.588,0.588,0.589,0.59,0.591,0.591,0.592,0.592,0.593,0.593,0.594,0.595,0.595,0.595,0.596,0.596,0.596,0.596,0.596,0.597,0.597,0.597,0.596,0.596,0.596,0.596,0.596,0.596,0.596,0.596,0,0,0,0,0,0,0,0,0,0,0,0.455,0.454,0.454,0.453,0.452,0.452,0.45,0.449,0.447,0.445,0.443,0.44,0.439,0.437,0.435,0.433,0.431,0.43,0.429,0.428,0.427,0.426,0.424,0.423,0.421,0.42,0.419,0.417,0.415,0.414,0.413,0.411,0.41,0.408,0.407,0.405,0.403,0.402,0.401,0.399,0.398,0.396,0.395,0.394,0.393,0.392,0.391,0.39,0.389,0.387,0.386,0.385,0.384,0.384,0.383,0.382,0.381,0.381,0.381,0.38,0.38,0.38,0.381,0.381,0.382,0.382,0.383,0.385,0.385,0.387,0.388,0.389,0.39,0.391,0.392,0.393,0.394,0.395,0.395,0.396,0.397,0.398,0.399,0.401,0.402,0.403,0.405,0.407,0.408,0.41,0.41,0.411,0.412,0.412,0.413,0.413,0.414,0.414,0,0,0,0.719,0.719,0.72,0.72,0.721,0.721,0.722,0.722,0.722,0.723,0.724,0.725,0.726,0.727,0.728,0.729,0.73,0.732,0.733,0.734,0.735,0.735,0.735,0.735,0.735,0.735,0.735,0.735,0.735,0.736,0.736,0.737,0.737,0.738,0.738,0.739,0.739,0.74,0.74,0.74,0.739,0.739,0.74,0.739,0.74,0.741,0.742,0.743,0.743,0.744,0.745,0.747,0.749,0.75,0.752,0.753,0.753,0.754,0.755,0.757,0.758,0.759,0.76,0.762,0.763,0.764,0.765,0.766,0.767,0.768,0.769,0.769,0.769,0.769,0.77,0.77,0.769,0.769,0.769,0.769,0.768,0.768,0.767,0.767,0.768,0.767,0.768,0.768,2.303,2.303,2.294,2.294,2.294,2.303,2.294,2.294,2.294,2.303,2.303,2.311,2.311,2.311,2.32,2.329,2.338,2.347,2.347,2.365,2.365,2.374,2.374,2.383,2.383,2.383,2.374,2.374,2.374,2.365,2.365,2.365,2.356,2.356,2.356,2.347,2.347,2.347,2.347,2.347,2.347,2.347,2.347,2.356,2.356,2.356,2.356,2.365,2.374,2.374,2.374,2.383,2.383,2.392,2.392,2.392,2.383,2.383,2.383,2.383,2.374,2.374,2.374,2.374,2.365,0,0,0,0,0,0,0,0,0,0,0,0,0,0,0,0,0,0,0,0,0,0,0,0,0,0,0.572,0.572,0.573,0.574,0.574,0.575,0.575,0.575,0.575,0.574,0.571,0.569,0.565,0.562,0.558,0.556,0.553,0.551,0.55,0.548,0.548,0.547,0.547,0.547,0.546,0.546
0,0,0,0,0,0.349,0.349,0.35,0.35,0.35,0.35,0.351,0.351,0.351,0.352,0.352,0.353,0.353,0.354,0.354,0.355,0.355,0.356,0.356,0.357,0.357,0.357,0.358,0.358,0.359,0.36,0.361,0.361,0.362,0.363,0.364,0.364,0.365,0.366,0.366,0.367,0.367,0.368,0.368,0.369,0.37,0.37,0.371,0.372,0.373,0.373,0.374,0.375,0.375,0.376,0.377,0.377,0.378,0.379,0.379,0.38,0.381,0.381,0.382,0.383,0.384,0.385,0.385,0.386,0.387,0.388,0.389,0.39,0.391,0.392,0.392,0.393,0.394,0.395,0.395,0.396,0.397,0.398,0.399,0.399,0.4,0.401,0.402,0.403,0.404,0.406,0.407,0.408,0.409,0.41,0.411,0.412,0.413,0.413,0.414,0.414,0.415,0.416,0.417,0.418,0.419,0.42,0.421,0.423,0.424,0.425,0.426,0.427,0.428,0.429,0.43,0.431,0.431,0.432,0.433,0.434,0.435,0,0,0,0,0,0,0.636,0.635,0.634,0.634,0.634,0.634,0.634,0.634,0.634,0.634,0.634,0.635,0.635,0.636,0.636,0.636,0.636,0.636,0.636,0.637,0.637,0.637,0.638,0.638,0.638,0.638,0.638,0.639,0.64,0.64,0.64,0.641,0.641,0.641,0.641,0.641,0.641,0.64,0.64,0.641,0.641,0.641,0.642,0.64,0.639,0.637,0.634,0.631,0.627,0.622,0.617,0.612,0,0,0,0,0.594,0.592,0.591,0.589,0.588,0.587,0.587,0.586,0.585,0.585,0.584,0.584,0.584,0.584,0.584,0.584,0.585,0.585,0.586,0.586,0.587,0.587,0.588,0.589,0.589,0.59,0.591,0.591,0.592,0.592,0.593,0.593,0.593,0.594,0.594,0.595,0.595,0.595,0.595,0.595,0.595,0.595,0.595,0.595,0.595,0.595,0.595,0.595,0.595,0,0,0,0,0,0,0,0,0,0,0,0.455,0.454,0.454,0.453,0.453,0.452,0.451,0.449,0.447,0.446,0.443,0.442,0.439,0.438,0.435,0.433,0.432,0.431,0.429,0.428,0.427,0.426,0.425,0.423,0.422,0.42,0.419,0.417,0.416,0.415,0.413,0.412,0.41,0.409,0.407,0.405,0.404,0.402,0.401,0.399,0.398,0.397,0.395,0.394,0.393,0.392,0.391,0.39,0.389,0.388,0.387,0.386,0.385,0.384,0.383,0.383,0.382,0.381,0.381,0.381,0.381,0.381,0.382,0.382,0.382,0.383,0.384,0.385,0.386,0.387,0.389,0.39,0.391,0.393,0.394,0.395,0.396,0.396,0.397,0.397,0.398,0.399,0.401,0,0.403,0.405,0.406,0.407,0.409,0.41,0.411,0.412,0.412,0.413,0.413,0.413,0.414,0.414,0,0,0.716,0.717,0.717,0.717,0.718,0.718,0.719,0.719,0.719,0.72,0.721,0.722,0.722,0.723,0.724,0.726,0.727,0.728,0.729,0.73,0.731,0.732,0.732,0.732,0.732,0.733,0.733,0.734,0.734,0.734,0.734,0.735,0.735,0.735,0.735,0.735,0.736,0.736,0.736,0.736,0.736,0.736,0.736,0.736,0.736,0.736,0.737,0.738,0.739,0.74,0.741,0.743,0.743,0.744,0.746,0.747,0.748,0.75,0.751,0.752,0.753,0.754,0.755,0.756,0.758,0.759,0.76,0.761,0.762,0.763,0.765,0.765,0.766,0.767,0.768,0.768,0.768,0.767,0.766,0.766,0.765,0.765,0.765,0.766,0.764,0.765,0.765,0.765,0.766,0,2.294,2.294,2.294,2.294,2.294,2.286,2.294,2.294,2.294,2.294,2.303,2.303,2.311,2.311,2.32,2.329,2.338,2.338,2.347,2.356,2.356,2.365,2.365,2.365,2.365,2.365,2.365,2.356,2.356,2.356,2.356,2.347,2.347,2.347,2.347,2.347,2.347,2.347,2.347,2.347,2.347,2.347,2.347,2.347,2.356,2.356,2.356,2.365,2.365,2.374,2.374,2.374,2.374,2.383,2.383,2.383,2.383,2.374,2.365,2.374,2.365,2.365,2.365,2.365,0,0,0,0,0,0,0,0,0,0,0,0,0,0,0,0,0,0,0,0,0,0,0,0,0,0,0.574,0.575,0.576,0.576,0.577,0.577,0.578,0.579,0.578,0.577,0.575,0.571,0.567,0.563,0.558,0.555,0.551,0.55,0.548,0.547,0.546,0.546,0.545,0.545,0.544,0.544
0,0,0,0,0.35,0.35,0.35,0.351,0.351,0.351,0.351,0.351,0.352,0.352,0.352,0.353,0.353,0.354,0.354,0.355,0.355,0.356,0.356,0.357,0.357,0.357,0.358,0.358,0.359,0.36,0.361,0.362,0.363,0.363,0.364,0.365,0.365,0.366,0.366,0.367,0.367,0.368,0.368,0.369,0.369,0.37,0.371,0.371,0.372,0.373,0.373,0.374,0.375,0.375,0.376,0.377,0.377,0.378,0.379,0.38,0.38,0.381,0.382,0.382,0.383,0.384,0.385,0.386,0.386,0.387,0.388,0.389,0.39,0.391,0.392,0.393,0.393,0.394,0.395,0.396,0.396,0.397,0.398,0.399,0.4,0.401,0.401,0.402,0.403,0.404,0.406,0.407,0.408,0.409,0.41,0.411,0.412,0.412,0.413,0.414,0.414,0.415,0.416,0.417,0.418,0.419,0.42,0.421,0.423,0.424,0.425,0.426,0.427,0.428,0.429,0.43,0.43,0.431,0.432,0.433,0.434,0.435,0.437,0.439,0.44,0.443,0,0,0,0.633,0.633,0,0,0.632,0.631,0.631,0.631,0.632,0.632,0.633,0.633,0.633,0.633,0.634,0.634,0.634,0.634,0.634,0.634,0.635,0.635,0.636,0.636,0.636,0.636,0.636,0.637,0.638,0.638,0.638,0.639,0.639,0.639,0.639,0.639,0.639,0.639,0.64,0.638,0.638,0.637,0.634,0.632,0.629,0.624,0.62,0.615,0.611,0,0,0,0.593,0.59,0.587,0.585,0.584,0.583,0.582,0.582,0.582,0.582,0.582,0.582,0.582,0.582,0.582,0.582,0.582,0.582,0.582,0.583,0.583,0.584,0.584,0.584,0.586,0.586,0.587,0.588,0.588,0.589,0.589,0.59,0.591,0.591,0.592,0.592,0.592,0.592,0.592,0.592,0.593,0.593,0.593,0.593,0.593,0.593,0.593,0.593,0.593,0.593,0.593,0.593,0,0,0,0,0,0,0,0,0,0,0,0.456,0.456,0.455,0.454,0.453,0.453,0.451,0.45,0.448,0.446,0.444,0.442,0.44,0.439,0.436,0.434,0.433,0.431,0.43,0.429,0.428,0.426,0.425,0.423,0.422,0.421,0.419,0.418,0.416,0.415,0.414,0.412,0.411,0.409,0.407,0.406,0.404,0.403,0.401,0.4,0.398,0.397,0.396,0.395,0.394,0.392,0.391,0.39,0.389,0.388,0.387,0.386,0.385,0.385,0.384,0.383,0.383,0.382,0.382,0.382,0.382,0.382,0.382,0.383,0.384,0.384,0.385,0.386,0.387,0.388,0.39,0.391,0.393,0.394,0.395,0.396,0.398,0.398,0.399,0.399,0.4,0.401,0.402,0.403,0.405,0.406,0.407,0.409,0.41,0.41,0.411,0.412,0.413,0.413,0.413,0.414,0.414,0.415,0,0,0.714,0.715,0.716,0.716,0.717,0.717,0.717,0.717,0.717,0.718,0.719,0.719,0.72,0.721,0.722,0.723,0.724,0.725,0.726,0.727,0.728,0.729,0.729,0.729,0.73,0.73,0.731,0.731,0.731,0.731,0.731,0.732,0.732,0.732,0.733,0.733,0.734,0.733,0.733,0.734,0.734,0.734,0.733,0.734,0.734,0.734,0.734,0.735,0.735,0.736,0.737,0.738,0.74,0.741,0.743,0.743,0.744,0.745,0.746,0.748,0.749,0.75,0.752,0.753,0.754,0.755,0.756,0.757,0.758,0.759,0.761,0.761,0.762,0.763,0.764,0.764,0.764,0.764,0.763,0.763,0.762,0.762,0.762,0.762,0.763,0.762,0.763,0.763,0.763,0.763,2.294,2.294,2.286,2.286,2.286,2.286,2.286,2.286,2.286,2.294,2.294,2.294,2.303,2.303,2.311,2.32,2.32,2.329,2.338,2.338,2.347,2.347,2.356,2.356,2.356,2.356,2.347,2.347,2.347,2.347,2.347,2.338,2.347,2.347,2.347,2.338,2.347,2.347,2.347,2.347,2.347,2.347,2.347,2.347,2.347,2.347,2.356,2.356,2.356,2.365,2.365,2.365,2.365,2.365,2.365,2.374,2.365,2.365,2.365,2.365,2.365,2.365,2.365,2.365,2.356,0,0,0,0,0,0,0,0,0,0,0,0,0,0,0,0,0,0,0,0,0,0,0,0,0,0,0.577,0.578,0.579,0.58,0.58,0.582,0.582,0.582,0.581,0.578,0.573,0.569,0.564,0.559,0.555,0.55,0.548,0.547,0.546,0.545,0.544,0.544,0.543,0.543,0.542
0,0,0,0,0,0,0,0,0.351,0.352,0.352,0.352,0.352,0.352,0.353,0.354,0.354,0.354,0.355,0.355,0.356,0.356,0.357,0.357,0.357,0.358,0.358,0.359,0.36,0.361,0.361,0.363,0.363,0.364,0.365,0.366,0.366,0.367,0.367,0.367,0.368,0.369,0.369,0.369,0.37,0.371,0.371,0.372,0.372,0.373,0.374,0.374,0.375,0.376,0.376,0.377,0.377,0.378,0.379,0.38,0.381,0.381,0.382,0.383,0.384,0.385,0.385,0.386,0.387,0.388,0.389,0.39,0.39,0.391,0.392,0.393,0.394,0.394,0.395,0.396,0.396,0.397,0.398,0.399,0.4,0.401,0.402,0.403,0.404,0.405,0.406,0.407,0.408,0.409,0.41,0.411,0.412,0.413,0.413,0.414,0.414,0.415,0.416,0.417,0.418,0.419,0.42,0.421,0.423,0.424,0.425,0.426,0.427,0.428,0.429,0.429,0.43,0.431,0.432,0.433,0.434,0.436,0.437,0.438,0.44,0.442,0.444,0.445,0,0,0.631,0,0.63,0.63,0.63,0.629,0.63,0.63,0.63,0.631,0.631,0.631,0.631,0.631,0.631,0.632,0.632,0.632,0.633,0.633,0.633,0.633,0.633,0.634,0.634,0.634,0.635,0.635,0.636,0.636,0.636,0.636,0.637,0.637,0.637,0.638,0.638,0.637,0.635,0.633,0.631,0.629,0.626,0.619,0.613,0.608,0.603,0,0,0,0.588,0.584,0.582,0.58,0.578,0.578,0.577,0.577,0.577,0.578,0.578,0.578,0.578,0.579,0.579,0.579,0.58,0.58,0.58,0.581,0.581,0.582,0.582,0.582,0.583,0.583,0.584,0.585,0.586,0.586,0.587,0.588,0.588,0.589,0.589,0.589,0.59,0.59,0.59,0.591,0.591,0.591,0.591,0.591,0.591,0.591,0.591,0.591,0.591,0.591,0.592,0.592,0.591,0,0,0,0,0,0,0,0,0,0,0,0.457,0.457,0.456,0.455,0.454,0.453,0.452,0.45,0.449,0.447,0.445,0.443,0.441,0.439,0.437,0.435,0.434,0.432,0.431,0.43,0.428,0.427,0.425,0.424,0.422,0.421,0.419,0.418,0.417,0.416,0.414,0.413,0.411,0.409,0.408,0.406,0.404,0.403,0.402,0.4,0.399,0.398,0.396,0.395,0.394,0.393,0.392,0.391,0.39,0.389,0.387,0.386,0.385,0.385,0.385,0.384,0.383,0.383,0.383,0.383,0.383,0.383,0.383,0.384,0.385,0.385,0.386,0.387,0.388,0.39,0.391,0.393,0.394,0.396,0.397,0.398,0.399,0.4,0.401,0.401,0.402,0.403,0.404,0.405,0.406,0.407,0.408,0.409,0.41,0.411,0.412,0.412,0.413,0.413,0.414,0.414,0.414,0,0,0.712,0.713,0.713,0.713,0.714,0.714,0.715,0.715,0.716,0.716,0.716,0.717,0.717,0.717,0.718,0.719,0.72,0.721,0.722,0.722,0.723,0.724,0.725,0.725,0.727,0.727,0.728,0.728,0.728,0.728,0.728,0.728,0.729,0.729,0.729,0.729,0.73,0.73,0.73,0.731,0.731,0.731,0.731,0.731,0.731,0.731,0.731,0.732,0.732,0.733,0.733,0.734,0.735,0.736,0.737,0.738,0.739,0.74,0.741,0.742,0.743,0.744,0.745,0.747,0.748,0.75,0.751,0.752,0.753,0.754,0.755,0.756,0.757,0.758,0.759,0.759,0.761,0.76,0.76,0.76,0.759,0.759,0.759,0.759,0.759,0.759,0.759,0.759,0.761,0.761,0.761,0,2.286,2.286,2.286,2.286,2.277,2.277,2.286,2.286,2.286,2.286,2.286,2.294,2.294,2.303,2.311,2.311,2.32,2.32,2.329,2.329,2.338,2.338,2.338,2.338,2.338,2.338,2.338,2.338,2.338,2.338,2.338,2.338,2.338,2.338,2.338,2.338,2.338,2.338,2.347,2.347,2.347,2.347,2.347,2.347,2.347,2.347,2.347,2.347,2.356,2.356,2.365,2.365,2.365,2.365,2.365,2.365,2.365,2.365,2.356,2.365,2.356,2.356,2.356,2.356,2.356,0,0,0,0,0,0,0,0,0,0,0,0,0,0,0,0,0,0,0,0,0,0,0,0,0,0,0.582,0.582,0.583,0.584,0.585,0.586,0.586,0.584,0.581,0.576,0.57,0.565,0.559,0.554,0.55,0.547,0.546,0.544,0.543,0.542,0.542,0.541,0.541,0.54
0,0,0,0,0,0,0,0.352,0.352,0.352,0.352,0.353,0.353,0.353,0.354,0.354,0.354,0.355,0.355,0.356,0.356,0.357,0.357,0.358,0.358,0.358,0.359,0.36,0.361,0.361,0.363,0.364,0.364,0.365,0.366,0.367,0.367,0.368,0.368,0.368,0.369,0.369,0.37,0.37,0.371,0.371,0.371,0.372,0.373,0.373,0.374,0.374,0.375,0.376,0.376,0.377,0.378,0.378,0.38,0.38,0.381,0.382,0.383,0.384,0.384,0.385,0.386,0.387,0.387,0.388,0.389,0.39,0.391,0.391,0.392,0.393,0.394,0.394,0.395,0.396,0.397,0.398,0.398,0.399,0.4,0.401,0.402,0.403,0.404,0.405,0.406,0.407,0.408,0.409,0.41,0.411,0.412,0.413,0.413,0.414,0.414,0.415,0.416,0.417,0.418,0.419,0.42,0.421,0.423,0.424,0.425,0.426,0.427,0.428,0.429,0.43,0.43,0.431,0.432,0.433,0.434,0.436,0.437,0.439,0.44,0.442,0.444,0.445,0.446,0.447,0,0.629,0.629,0.629,0.628,0.628,0.627,0.628,0.629,0.629,0.628,0.629,0.629,0.629,0.629,0.629,0.629,0.63,0.63,0.63,0.63,0.631,0.631,0.631,0.631,0.632,0.633,0.633,0.634,0.634,0.634,0.634,0.634,0.635,0.636,0.636,0.635,0.633,0.63,0.626,0.622,0.617,0,0,0,0,0,0,0.587,0.583,0.58,0.577,0.575,0.575,0.575,0.574,0.574,0.575,0.575,0.576,0.576,0.576,0.577,0.577,0.577,0.578,0.578,0.578,0.578,0.579,0.579,0.58,0.58,0.581,0.581,0.582,0.582,0.583,0.584,0.584,0.585,0.586,0.586,0.587,0.587,0.587,0.587,0.588,0.588,0.588,0.588,0.588,0.589,0.589,0.589,0.589,0.589,0.589,0.589,0.589,0.589,0.589,0,0,0,0,0,0,0,0,0,0,0.461,0.46,0.459,0.458,0.457,0.456,0.455,0.454,0.452,0.45,0.449,0.447,0.445,0.443,0.441,0.44,0.438,0.436,0.434,0.433,0.431,0.43,0.428,0.427,0.425,0.424,0.423,0.421,0.42,0.419,0.417,0.416,0.415,0.413,0.412,0.41,0.408,0.407,0.405,0.403,0.402,0.401,0.399,0.398,0.397,0.396,0.394,0.393,0.392,0.391,0.39,0.389,0.388,0.387,0.386,0.386,0.385,0.384,0.384,0.384,0.383,0.384,0.384,0.384,0.384,0.385,0.386,0.386,0.387,0.388,0.389,0.391,0.392,0.394,0.395,0.397,0.399,0.4,0.401,0.402,0.403,0.403,0.404,0.405,0.406,0.407,0.408,0.408,0.409,0.41,0.411,0.412,0.412,0.413,0.413,0.414,0.414,0.415,0.415,0,0,0.712,0.712,0.712,0.712,0.712,0.713,0.713,0.713,0.713,0.713,0.713,0.714,0.714,0.715,0.716,0.717,0.717,0.718,0.719,0.719,0.72,0.721,0.722,0.722,0.723,0.724,0.724,0.725,0.726,0.726,0.727,0.727,0.727,0.727,0.728,0.728,0.728,0.728,0.728,0.728,0.729,0.729,0.729,0.729,0.729,0.729,0.729,0.729,0.729,0.73,0.731,0.731,0.732,0.733,0.734,0.735,0.735,0.736,0.736,0.737,0.739,0.74,0.741,0.743,0.744,0.745,0.747,0.748,0.749,0.75,0.751,0.753,0.753,0.753,0.754,0.755,0.756,0.756,0.755,0.756,0.755,0.755,0.755,0.755,0.755,0.756,0.756,0.756,0.757,0.757,0.758,0.757,0,2.277,2.277,2.277,2.269,2.277,2.269,2.277,2.277,2.277,2.277,2.286,2.286,2.294,2.294,2.303,2.303,2.311,2.311,2.32,2.32,2.329,2.329,2.329,2.329,2.329,2.329,2.329,2.329,2.329,2.329,2.329,2.329,2.338,2.338,2.338,2.338,2.338,2.338,2.338,2.338,2.347,2.347,2.347,2.347,2.347,2.347,2.347,2.347,2.356,2.356,2.356,2.356,2.356,2.356,2.356,2.356,2.356,2.356,2.356,2.365,2.356,2.356,2.356,2.356,0,0,0,0,0,0,0,0,0,0,0,0,0,0,0,0,0,0,0,0,0,0,0,0,0,0,0,0,0,0.587,0.587,0.588,0.588,0.587,0.583,0.578,0,0,0,0.553,0.548,0.546,0.544,0.543,0.542,0.541,0.54,0.539,0.539,0.538
0,0,0,0,0,0,0,0,0,0,0.353,0.354,0.354,0.354,0.354,0.355,0.355,0.356,0.356,0.356,0.357,0.357,0.358,0.358,0.358,0.359,0.36,0.361,0.362,0.362,0.364,0.365,0.366,0.366,0.367,0.367,0.368,0.368,0.369,0.369,0.369,0.37,0.37,0.371,0.371,0.371,0.372,0.373,0.373,0.374,0.374,0.375,0.375,0.376,0.377,0.378,0.378,0.379,0.38,0.381,0.382,0.382,0.383,0.384,0.385,0.386,0.387,0.387,0.388,0.389,0.389,0.39,0.391,0.392,0.392,0.393,0.394,0.395,0.395,0.396,0.397,0.398,0.399,0.399,0.401,0.402,0.403,0.403,0.404,0.405,0.406,0.407,0.408,0.409,0.41,0.411,0.412,0.413,0.413,0.414,0.415,0.416,0.417,0.417,0.418,0.419,0.42,0.422,0.423,0.424,0.425,0.426,0.427,0.428,0.429,0.43,0.43,0.431,0.432,0.433,0.434,0.436,0.437,0.439,0.44,0.442,0.444,0.445,0.446,0.447,0.448,0,0.628,0.627,0.627,0.627,0.627,0.626,0.627,0.627,0.627,0.627,0.627,0.627,0.627,0.627,0.627,0.627,0.627,0.627,0.628,0.628,0.629,0.629,0.629,0.629,0.63,0.631,0.631,0.632,0.632,0.632,0.633,0.633,0.633,0.634,0.631,0.629,0.624,0,0,0,0,0,0,0.587,0.583,0.581,0.578,0.575,0.574,0.572,0.571,0.571,0.572,0.573,0.572,0.574,0.574,0.574,0.575,0.575,0.575,0.575,0.576,0.576,0.576,0.577,0.577,0.577,0.578,0.578,0.578,0.579,0.579,0.58,0.581,0.581,0.582,0.582,0.583,0.583,0.584,0.584,0.585,0.585,0.586,0.586,0.586,0.586,0.586,0.586,0.587,0.587,0.587,0.587,0.587,0.587,0.587,0.587,0.587,0,0,0,0,0,0,0,0,0,0,0,0.463,0.462,0.461,0.46,0.458,0.457,0.455,0.454,0.453,0.451,0.449,0.447,0.446,0.444,0.442,0.44,0.439,0.437,0.435,0.434,0.432,0.431,0.429,0.428,0.426,0.425,0.423,0.422,0.42,0.419,0.418,0.417,0.415,0.414,0.412,0.41,0.409,0.407,0.405,0.404,0.402,0.401,0.399,0.398,0.397,0.396,0.395,0.394,0.393,0.392,0.391,0.39,0.388,0.387,0.386,0.386,0.386,0.385,0.385,0.384,0.384,0.385,0.385,0.385,0.385,0.386,0.387,0.387,0.388,0.389,0.39,0.392,0.393,0.395,0.396,0.398,0.4,0.401,0.403,0.404,0.404,0.405,0.406,0.407,0.407,0.408,0.409,0.41,0.41,0.411,0.412,0.412,0.413,0.414,0.414,0.414,0.415,0.415,0.416,0,0,0.705,0.707,0.707,0.707,0.707,0.709,0.711,0.711,0.71,0.711,0.711,0.712,0.712,0.712,0.712,0.713,0.714,0.715,0.716,0.716,0.717,0.717,0.719,0.719,0.72,0.721,0.722,0.722,0.723,0.723,0.724,0.724,0.725,0.725,0.725,0.726,0.726,0.727,0.727,0.727,0.727,0.728,0.728,0.728,0.728,0.728,0.727,0.728,0.728,0.728,0.728,0.728,0.729,0.73,0.73,0.731,0.732,0.732,0.734,0.734,0.735,0.736,0.737,0.739,0.741,0.742,0.743,0.744,0.745,0.746,0.747,0.749,0.749,0.749,0.75,0.751,0.751,0.751,0.752,0.752,0.752,0.752,0.752,0.753,0.753,0.753,0.753,0.754,0.754,0.754,0.754,0,0.754,2.26,2.252,2.26,2.26,2.26,2.26,2.26,2.269,2.269,2.269,2.277,2.277,2.277,2.286,2.294,2.294,2.294,2.303,2.303,2.311,2.311,2.311,2.32,2.32,2.32,2.32,2.32,2.329,2.329,2.329,2.329,2.329,2.329,2.329,2.329,2.338,2.338,2.338,2.338,2.338,2.338,2.338,2.338,2.338,2.338,2.338,2.347,2.347,2.347,2.347,2.347,2.347,2.356,2.356,2.356,2.356,2.356,2.356,2.356,2.356,2.356,2.356,2.356,2.347,2.347,0,0,0,0,0,0,0,0,0,0,0,0,0,0,0,0,0,0,0,0,0,0,0,0,0,0.587,0,0.588,0.589,0.59,0.591,0.591,0.589,0.586,0.58,0,0.566,0.558,0.552,0.547,0.544,0.543,0.541,0.54,0.539,0.539,0.538,0.537,0.536
0,0,0,0,0,0,0,0,0,0.354,0.354,0.354,0.355,0.355,0,0.355,0.356,0.356,0.356,0.357,0.357,0.358,0.358,0.358,0.359,0.36,0.361,0.362,0.362,0.364,0.365,0.366,0.367,0.367,0.368,0.368,0.369,0.369,0.369,0.37,0.37,0.37,0.371,0.371,0.372,0.372,0.373,0.373,0.374,0.374,0.375,0.375,0.376,0.376,0.377,0.378,0.379,0.38,0.38,0.381,0.382,0.383,0.384,0.385,0.385,0.386,0.387,0.388,0.389,0.389,0.39,0.391,0.391,0.392,0.393,0.394,0.394,0.395,0.396,0.397,0.397,0.398,0.399,0.4,0.401,0.402,0.403,0.404,0.405,0.406,0.407,0.407,0.409,0.409,0.41,0.411,0.412,0.413,0.413,0.414,0.415,0.416,0.417,0.418,0.419,0.42,0.421,0.422,0.423,0.424,0.425,0.426,0.427,0.428,0.428,0.429,0.43,0.431,0.432,0.433,0.435,0.436,0.438,0.439,0.441,0.442,0.444,0.445,0.446,0.447,0.448,0.449,0.449,0,0.626,0.625,0.625,0.625,0.625,0.625,0.625,0.625,0.625,0.625,0.625,0.625,0.625,0.625,0.625,0.625,0.625,0.626,0.626,0.627,0.627,0.627,0.627,0.628,0.629,0.629,0.63,0.629,0.63,0.631,0.631,0.632,0.631,0.622,0,0,0,0,0.587,0.583,0.579,0.576,0.574,0.571,0.571,0.57,0.568,0.568,0.569,0.57,0.57,0.571,0.571,0.572,0.572,0.572,0.573,0.574,0.574,0.574,0.574,0.574,0.575,0.575,0.576,0.576,0.576,0.576,0.577,0.577,0.577,0.578,0.578,0.579,0.579,0.58,0.581,0.581,0.582,0.582,0.583,0.583,0.583,0.583,0.584,0.584,0.584,0.584,0.585,0.585,0.585,0.585,0.585,0.584,0.585,0.584,0.585,0,0.584,0,0,0,0,0,0,0,0,0,0.465,0.463,0.462,0.461,0.46,0.457,0.456,0.454,0.453,0.451,0.449,0.448,0.446,0.444,0.443,0.441,0.439,0.438,0.436,0.434,0.433,0.431,0.43,0.428,0.427,0.425,0.424,0.423,0.421,0.42,0.419,0.417,0.415,0.414,0.412,0.41,0.409,0.407,0.406,0.404,0.403,0.401,0.4,0.399,0.398,0.397,0.396,0.394,0.393,0.392,0.391,0.39,0.389,0.388,0.387,0.387,0.386,0.386,0.385,0.385,0.385,0.385,0.386,0.386,0.387,0.387,0.388,0.389,0.389,0.39,0.392,0.393,0.394,0.396,0.398,0.399,0.401,0.402,0.404,0.405,0.406,0.407,0.407,0.408,0.409,0.409,0.41,0.41,0.411,0.412,0.413,0.413,0.414,0.415,0.415,0.415,0.416,0.416,0,0,0.685,0.689,0.692,0.698,0.699,0.702,0.704,0.707,0.708,0.708,0.708,0.708,0.709,0.709,0.71,0.71,0.711,0.711,0.712,0.712,0.712,0.713,0.714,0.716,0.717,0.717,0.717,0.719,0.72,0.721,0.722,0.722,0.722,0.723,0.724,0.724,0.724,0.725,0.725,0.725,0.726,0.726,0.726,0.726,0.726,0.726,0.726,0.725,0.726,0.726,0.726,0.726,0.727,0.727,0.727,0.728,0.728,0.728,0.729,0.729,0.731,0.732,0.733,0.734,0.735,0.737,0.739,0.74,0.741,0.742,0.743,0.743,0.744,0.745,0.745,0.745,0.746,0.746,0.747,0.747,0.747,0.748,0.748,0.748,0.749,0.749,0.75,0.751,0.751,0.751,0.751,0.753,0.752,0.753,0,2.244,2.244,2.244,2.244,2.244,2.244,2.252,2.252,2.26,2.26,2.26,2.269,2.269,2.277,2.286,2.286,2.294,2.294,2.294,2.303,2.303,2.311,2.311,2.311,2.311,2.32,2.32,2.32,2.32,2.32,2.32,2.32,2.32,2.329,2.329,2.329,2.329,2.329,2.329,2.329,2.329,2.329,2.329,2.329,2.338,2.338,2.338,2.338,2.338,2.338,2.347,2.347,2.347,2.347,2.347,2.347,2.356,2.356,2.356,2.356,2.356,2.356,2.347,2.347,0,0,0,0,0,0,0,0,0,0,0,0,0,0,0,0,0,0,0,0,0,0,0,0,0,0.591,0.591,0.592,0.592,0.592,0.593,0.593,0.592,0.588,0.582,0.574,0.565,0.557,0.551,0.545,0.543,0.541,0.54,0.539,0.538,0.537,0.536,0.536,0.535
0,0,0,0,0,0,0,0,0,0,0,0,0,0.355,0,0,0.356,0.356,0.357,0.357,0.358,0.358,0.358,0.358,0.359,0.36,0.361,0.362,0.363,0.364,0.366,0.366,0.367,0.368,0.368,0.369,0.369,0.369,0.37,0.37,0.371,0.371,0.371,0.372,0.372,0.373,0.373,0.374,0.374,0.375,0.375,0.376,0.376,0.377,0.378,0.379,0.379,0.38,0.381,0.382,0.383,0.384,0.384,0.385,0.386,0.387,0.388,0.388,0.389,0.39,0.39,0.391,0.392,0.392,0.393,0.394,0.395,0.395,0.396,0.397,0.398,0.399,0.399,0.401,0.401,0.402,0.403,0.404,0.405,0.406,0.407,0.408,0.409,0.409,0.41,0.411,0.412,0.413,0.414,0.414,0.415,0.416,0.417,0.418,0.419,0.42,0.421,0.422,0.423,0.424,0.425,0.426,0.427,0.428,0.428,0.429,0.43,0.431,0.432,0.433,0.434,0.436,0.438,0.439,0.441,0.442,0.444,0.445,0.446,0.447,0.448,0.449,0,0.451,0.625,0.625,0.624,0.624,0.624,0.624,0.623,0.623,0.623,0.623,0.623,0.622,0.622,0.622,0.622,0.623,0.623,0.623,0.624,0.625,0.625,0.625,0.625,0.625,0.627,0.627,0.628,0.628,0.629,0.629,0.629,0.63,0,0,0,0,0,0.579,0.576,0.57,0.567,0.567,0.565,0.565,0.565,0.565,0.565,0.565,0.566,0.568,0.568,0.569,0.569,0.57,0.57,0.571,0.571,0.571,0.572,0.572,0.572,0.573,0.573,0.574,0.574,0.575,0.575,0.575,0.575,0.575,0.576,0.576,0.576,0.577,0.577,0.578,0.578,0.579,0.579,0.58,0.58,0.581,0.581,0.581,0.582,0.582,0.582,0.582,0.582,0.583,0.583,0.583,0.583,0.582,0.582,0.583,0.582,0.582,0,0,0,0,0,0,0,0,0,0.467,0.466,0.465,0.463,0.462,0.46,0.458,0.456,0.455,0.453,0.451,0.45,0.448,0.447,0.445,0.443,0.442,0.44,0.439,0.437,0.435,0.434,0.432,0.43,0.429,0.427,0.426,0.424,0.423,0.421,0.42,0.419,0.417,0.416,0.414,0.412,0.411,0.409,0.408,0.406,0.404,0.403,0.402,0.4,0.399,0.398,0.397,0.396,0.395,0.394,0.393,0.392,0.391,0.39,0.389,0.388,0.387,0.387,0.386,0.386,0.386,0.386,0.386,0.387,0.387,0.388,0.389,0.389,0.39,0.39,0.391,0.393,0.394,0.396,0.397,0.399,0.4,0.402,0.404,0.405,0.406,0.407,0.407,0.408,0.409,0.41,0.41,0.411,0.411,0.412,0.413,0.414,0.415,0.416,0.416,0.417,0.417,0.418,0.418,0,0,0,0,0.678,0.685,0.688,0.692,0.698,0.704,0.705,0.705,0.707,0.706,0.707,0.707,0.707,0.707,0.707,0.708,0.709,0.709,0.71,0.71,0.712,0.712,0.713,0.713,0.715,0.716,0.717,0.718,0.719,0.72,0.72,0.721,0.722,0.722,0.723,0.723,0.723,0.723,0.723,0.724,0.724,0.724,0.724,0.724,0.724,0.724,0.724,0.724,0.724,0.725,0.725,0.725,0.725,0.726,0.727,0.727,0.728,0.728,0.728,0.729,0.729,0.73,0.732,0.734,0.735,0.736,0.737,0.738,0.739,0.74,0.741,0.742,0.741,0.742,0.743,0.743,0.743,0.743,0.744,0.744,0.744,0.745,0.745,0.746,0.746,0.747,0.747,0.749,0.75,0.75,0.749,0.75,0,2.22,2.22,2.228,2.228,2.228,2.228,2.236,2.236,2.244,2.252,2.252,2.252,2.26,2.269,2.269,2.277,2.277,2.286,2.286,2.294,2.294,2.303,2.303,2.303,2.311,2.311,2.311,2.311,2.32,2.311,2.311,2.311,2.311,2.32,2.32,2.32,2.32,2.32,2.32,2.32,2.32,2.32,2.32,2.32,2.32,2.329,2.329,2.329,2.329,2.338,2.338,2.338,2.347,2.347,2.347,2.347,2.347,2.347,2.347,2.347,2.347,2.347,2.347,2.347,2.338,0,0,0,0,0,0,0,0,0,0,0,0,0,0,0,0,0,0,0,0,0,0,0,0,0,0,0.595,0.595,0.595,0.595,0.595,0.593,0.589,0.582,0.573,0.565,0.557,0.55,0.545,0.542,0.54,0.538,0.537,0.537,0.536,0.535,0.535,0.534
0,0,0,0,0,0,0,0,0,0,0,0,0,0,0,0,0,0,0,0.358,0.358,0.358,0.358,0.359,0.359,0.36,0.361,0.362,0.364,0.365,0.366,0.367,0.368,0.369,0.369,0.369,0.369,0.37,0.37,0.371,0.371,0.372,0.372,0.372,0.373,0.373,0.374,0.374,0.375,0.375,0.376,0.376,0.377,0.378,0.378,0.379,0.38,0.38,0.381,0.382,0.383,0.384,0.385,0.385,0.386,0.387,0.388,0.389,0.389,0.39,0.391,0.391,0.392,0.393,0.393,0.394,0.395,0.396,0.396,0.397,0.398,0.399,0.4,0.401,0.402,0.403,0.404,0.404,0.405,0.406,0.407,0.408,0.409,0.41,0.41,0.412,0.412,0.413,0.414,0.415,0.415,0.417,0.418,0.419,0.419,0.421,0.421,0.423,0.423,0.424,0.425,0.426,0.427,0.428,0.428,0.429,0.43,0.431,0.432,0.433,0.435,0.436,0.438,0.439,0.44,0.442,0.444,0.445,0.446,0.447,0.448,0.449,0.45,0.452,0,0.624,0.623,0.623,0.622,0.622,0.622,0.621,0.621,0.62,0.62,0.62,0.62,0.62,0.62,0.62,0.62,0.62,0.621,0.621,0.622,0.623,0.623,0.624,0.624,0.625,0.626,0.627,0.627,0.628,0.627,0,0,0,0,0,0.571,0.567,0.564,0.562,0.561,0.56,0.56,0.56,0.562,0.563,0.563,0.564,0.564,0.566,0.566,0.567,0.567,0.568,0.568,0.569,0.569,0.57,0.57,0.57,0.57,0.571,0.571,0.572,0.572,0.572,0.573,0.573,0.574,0.574,0.574,0.574,0.574,0.574,0.575,0.575,0.576,0.576,0.577,0.577,0.578,0.578,0.578,0.579,0.579,0.579,0.58,0.58,0.58,0.581,0.581,0.581,0.58,0.579,0.579,0.579,0.579,0.579,0.578,0,0,0,0,0,0,0,0,0.468,0.467,0.466,0.465,0.464,0,0.459,0.457,0.455,0.453,0.452,0.45,0.449,0.447,0.446,0.444,0.442,0.44,0.439,0.438,0.436,0.434,0.432,0.431,0.429,0.428,0.426,0.425,0.423,0.422,0.421,0.419,0.417,0.416,0.414,0.413,0.411,0.409,0.408,0.406,0.405,0.403,0.402,0.401,0.4,0.399,0.397,0.397,0.395,0.395,0.394,0.392,0.391,0.39,0.389,0.388,0.388,0.387,0.387,0.387,0.387,0.387,0.387,0.388,0.388,0.389,0.389,0.39,0.391,0.391,0.392,0.393,0.395,0.396,0.398,0.4,0.402,0.403,0.404,0.406,0.407,0.408,0.408,0.409,0.41,0.41,0.411,0.412,0.412,0.413,0.414,0.415,0.416,0.417,0.417,0,0.419,0.419,0,0,0,0,0,0,0,0.676,0.682,0.687,0.693,0.697,0.699,0.703,0.704,0.703,0.704,0.704,0.704,0.704,0.705,0.706,0.707,0.707,0.707,0.708,0.709,0.71,0.711,0.712,0.712,0.713,0.715,0.716,0.717,0.717,0.718,0.719,0.72,0.721,0.721,0.722,0.722,0.722,0.722,0.722,0.722,0.722,0.722,0.723,0.722,0.724,0.724,0.724,0.724,0.724,0.724,0.724,0.725,0.725,0.725,0.725,0.725,0.726,0.726,0.727,0.728,0.728,0.729,0.731,0.732,0.733,0.735,0.735,0.736,0.737,0.738,0.738,0.738,0.74,0.741,0.741,0.741,0.742,0.742,0.743,0.743,0.743,0.743,0.744,0.744,0.745,0.746,0.746,0.747,0.747,0.748,0.749,2.204,2.204,2.212,2.212,2.212,2.22,2.22,2.22,2.228,2.236,2.236,2.244,2.252,2.252,2.26,2.26,2.269,2.277,2.277,2.286,2.286,2.294,2.294,2.294,2.294,2.303,2.303,2.303,2.303,2.303,2.303,2.303,2.303,2.303,2.303,2.311,2.311,2.311,2.311,2.311,2.311,2.311,2.311,2.311,2.311,2.32,2.32,2.32,2.329,2.329,2.329,2.338,2.338,2.347,2.347,2.347,2.347,2.347,2.347,2.347,2.347,2.347,2.347,2.347,2.338,0,0,0,0,0,0,0,0,0,0,0,0,0,0,0,0,0,0,0,0,0,0,0,0,0,0,0.599,0,0.598,0.597,0.597,0.595,0.589,0.581,0,0,0,0,0.542,0.54,0.539,0.537,0.537,0.536,0.535,0.535,0.534,0.533
0,0,0,0,0,0,0,0,0,0,0,0,0,0,0,0,0,0,0,0,0,0,0,0,0,0,0,0.363,0.364,0.366,0.367,0.367,0.368,0.369,0.369,0.369,0.37,0.37,0.37,0.371,0.372,0.372,0.373,0.373,0.374,0.374,0.375,0.375,0.376,0.376,0.377,0.377,0.378,0.378,0.379,0.38,0.38,0.381,0.382,0.383,0.384,0.385,0.385,0.386,0.387,0.388,0.388,0.389,0.389,0.39,0.391,0.392,0.393,0.393,0.394,0.394,0.395,0.396,0.397,0.398,0.398,0.399,0.4,0.401,0.402,0.403,0.404,0.405,0.406,0.407,0.407,0.408,0.409,0.41,0.411,0.412,0.412,0.413,0.414,0.415,0.416,0.417,0.418,0.419,0.42,0.421,0.422,0.423,0.424,0.425,0.425,0.426,0.427,0.428,0.429,0.43,0.431,0.431,0.432,0.434,0.435,0.436,0.438,0.439,0.441,0.442,0.444,0.445,0.446,0.448,0.449,0.45,0.451,0.453,0,0,0.622,0.621,0.62,0.619,0.619,0.619,0.619,0.617,0.617,0.617,0.617,0.617,0.617,0.617,0.617,0.617,0.619,0.619,0.619,0.62,0.621,0.621,0.622,0.623,0.624,0.625,0.625,0,0,0,0,0,0.57,0.556,0.559,0.561,0.559,0.558,0.558,0.559,0.559,0.559,0.56,0.56,0.561,0.561,0.562,0.564,0.564,0.565,0.565,0.566,0.566,0.567,0.567,0.568,0.568,0.568,0.569,0.569,0.57,0.57,0.57,0.571,0.571,0.571,0.571,0.572,0.572,0.572,0.572,0.572,0.572,0.573,0.573,0.574,0.574,0.575,0.575,0.576,0.576,0.577,0.577,0.577,0.577,0.578,0.578,0.578,0.578,0.578,0.577,0.577,0.576,0.576,0.576,0.575,0.575,0,0,0,0,0,0,0,0,0.47,0.469,0.468,0.466,0.465,0.462,0.46,0.458,0.456,0.454,0.453,0.451,0.45,0.448,0.446,0.445,0.443,0.441,0.439,0.438,0.436,0.434,0.433,0.431,0.429,0.428,0.426,0.425,0.424,0.422,0.421,0.419,0.417,0.416,0.414,0.413,0.411,0.41,0.408,0.407,0.405,0.404,0.403,0.401,0.4,0.399,0.398,0.397,0.396,0.395,0.394,0.393,0.392,0.391,0.39,0.389,0.388,0.388,0.388,0.387,0.388,0.388,0.388,0.389,0.389,0.39,0.39,0.391,0.391,0.392,0.393,0.394,0.396,0.397,0.399,0.401,0.402,0.404,0.406,0.407,0.407,0.409,0.409,0.41,0.411,0.412,0.412,0.413,0.413,0.414,0.415,0.416,0.418,0.419,0.419,0.42,0.42,0.421,0,0,0,0,0.644,0.648,0,0,0.668,0.676,0.682,0.688,0.692,0.696,0.699,0.7,0.701,0.702,0.702,0.702,0.703,0.703,0.703,0.704,0.704,0.706,0.707,0.707,0.707,0.708,0.71,0.711,0.712,0.713,0.714,0.716,0.717,0.717,0.718,0.718,0.719,0.719,0.719,0.719,0.719,0.72,0.72,0.72,0.721,0.722,0.722,0.722,0.722,0.722,0.722,0.722,0.722,0.723,0.723,0.723,0.723,0.723,0.723,0.723,0.723,0.724,0.724,0.725,0.726,0.727,0.728,0.729,0.73,0.732,0.733,0.734,0.735,0.735,0.735,0.736,0.737,0.738,0.738,0.739,0.739,0.74,0.741,0.741,0.741,0.742,0.742,0.743,0.743,0.744,0.744,0.744,0.745,0.745,2.188,2.188,2.188,2.196,2.196,2.196,2.204,2.212,2.212,2.22,2.228,2.228,2.236,2.244,2.244,2.252,2.26,2.269,2.269,2.277,2.277,2.286,2.286,2.286,2.286,2.294,2.294,2.294,2.294,2.294,2.294,2.294,2.294,2.294,2.294,2.294,2.294,2.294,2.294,2.294,2.294,2.294,2.294,2.303,2.303,2.311,2.311,2.32,2.32,2.32,2.329,2.329,2.338,2.338,2.338,2.347,2.347,2.347,2.347,2.347,2.347,2.347,2.347,2.347,2.347,2.338,0,0,0,0,0,0,0,0,0,0,0,0,0,0,0,0,0,0,0,0,0,0,0,0,0,0,0,0,0.599,0.597,0.595,0,0,0,0,0,0,0.541,0.539,0.538,0.536,0.536,0.535,0.534,0.533,0.532,0.532
0,0,0,0,0,0,0,0,0,0,0,0,0,0,0,0,0,0,0,0,0,0,0,0,0,0,0,0,0.365,0.366,0.367,0.368,0.369,0.369,0.369,0.37,0.37,0.371,0.371,0.372,0.372,0.373,0.374,0.374,0.374,0.375,0.376,0.376,0.376,0.377,0.377,0.378,0.379,0.379,0.38,0.38,0.381,0.382,0.383,0.384,0.385,0.385,0.386,0.386,0.387,0.388,0.389,0.39,0.39,0.391,0.391,0.392,0.393,0.394,0.394,0.395,0.395,0.396,0.397,0.398,0.399,0.4,0.401,0.402,0.403,0.404,0.404,0.405,0.406,0.407,0.408,0.409,0.409,0.41,0.411,0.412,0.413,0.413,0.414,0.415,0.416,0.417,0.418,0.419,0.42,0.421,0.422,0.423,0.424,0.425,0.426,0.427,0.428,0.428,0.429,0.43,0.431,0.432,0.433,0.434,0.435,0.437,0.438,0.439,0.441,0.442,0.444,0.445,0.446,0.448,0.449,0.451,0.452,0.454,0,0,0,0,0.619,0.617,0.617,0.616,0.615,0.615,0.615,0.614,0.614,0.614,0.614,0.614,0.615,0.615,0.615,0.616,0.617,0,0,0.618,0.616,0.618,0.622,0.624,0,0,0,0,0,0.554,0.555,0.555,0.557,0.558,0.558,0.557,0.558,0.558,0.558,0.558,0.559,0.559,0.559,0.56,0.56,0.561,0.562,0.563,0.563,0.564,0.564,0.565,0.565,0.565,0.566,0.566,0.566,0.567,0.568,0.568,0.569,0.569,0.569,0.57,0.57,0.57,0.57,0.57,0.57,0.57,0.57,0.57,0.571,0.571,0.571,0.572,0.572,0.573,0.574,0.574,0.575,0.575,0.575,0.575,0.575,0.575,0.575,0.575,0.574,0.574,0.574,0.573,0.573,0.572,0.572,0,0,0,0,0,0,0,0,0.471,0.47,0.469,0.468,0.466,0.464,0.461,0.458,0.456,0.455,0.453,0.451,0.45,0.448,0.446,0.445,0.443,0.442,0.44,0.439,0.437,0.435,0.433,0.432,0.43,0.428,0.427,0.425,0.424,0.422,0.421,0.419,0.417,0.416,0.415,0.413,0.412,0.41,0.409,0.407,0.406,0.404,0.403,0.402,0.401,0.399,0.398,0.398,0.396,0.396,0.395,0.394,0.392,0.391,0.39,0.39,0.389,0.389,0.388,0.388,0.388,0.388,0.389,0.389,0.39,0.391,0.391,0.392,0.392,0.393,0.394,0.395,0.397,0.398,0.4,0.402,0.403,0.405,0.406,0.407,0.409,0.409,0.41,0.411,0.412,0.413,0.414,0.414,0.415,0.416,0.417,0.418,0.419,0.42,0.421,0.422,0.423,0.423,0,0,0.624,0.629,0.633,0.637,0.642,0,0,0,0.67,0.677,0.683,0.688,0.692,0.695,0.698,0.699,0.699,0.699,0.7,0.7,0.701,0.702,0.702,0.703,0.703,0.704,0.705,0.706,0.707,0.708,0.709,0.71,0.712,0.712,0.714,0.714,0.715,0.716,0.716,0.716,0.716,0.716,0.717,0.717,0.717,0.717,0.718,0.719,0.719,0.72,0.721,0.722,0.721,0.721,0.721,0.721,0.722,0.722,0.722,0.722,0.721,0.721,0.721,0.721,0.722,0.722,0.722,0.723,0.724,0.726,0.728,0.728,0.73,0.731,0.732,0.732,0.733,0.734,0.735,0.735,0.735,0.736,0.736,0.737,0.738,0.739,0.739,0.739,0.74,0.74,0.741,0.742,0.742,0.743,0.743,0.743,2.165,2.165,2.18,2.18,2.18,2.188,2.188,2.196,2.204,2.204,2.212,2.212,2.22,2.228,2.236,2.244,2.252,2.252,2.26,2.269,2.269,2.277,2.277,2.277,2.277,2.286,2.286,2.286,2.286,2.286,2.286,2.286,2.277,2.277,2.277,2.277,2.277,2.277,2.277,2.277,2.286,2.286,2.286,2.286,2.294,2.303,2.303,2.311,2.311,2.32,2.32,2.329,2.329,2.338,2.338,2.338,2.347,2.347,2.347,2.347,2.338,2.338,2.338,2.338,2.338,2.338,2.329,2.329,2.32,0,0,0,0,0,0,0,0,0,0,0,0,0,0,0,0,0,0,0,0,0,0,0,0,0,0,0,0,0,0,0,0,0,0.544,0.54,0.538,0.537,0.536,0.535,0.534,0.533,0.532,0.531,0.531
0,0,0,0,0,0,0,0,0,0,0,0,0,0,0,0,0,0,0,0,0,0,0,0,0,0,0,0,0,0,0,0,0.369,0.369,0.37,0.37,0.371,0.371,0.372,0.372,0.373,0.374,0.374,0.375,0.375,0.376,0.376,0.377,0.377,0.378,0.378,0.379,0.38,0.38,0.38,0.381,0.382,0.383,0.384,0.384,0.385,0.386,0.387,0.387,0.388,0.389,0.39,0.39,0.391,0.391,0.392,0.393,0.393,0.394,0.395,0.395,0.396,0.397,0.397,0.398,0.399,0.4,0.401,0.402,0.403,0.404,0.405,0.406,0.406,0.407,0.408,0.409,0.41,0.41,0.411,0.412,0.413,0.414,0.415,0.415,0.417,0.418,0.419,0.42,0.421,0.422,0.423,0.423,0.424,0.425,0.426,0.427,0.428,0.429,0.429,0.431,0.431,0.432,0.434,0.435,0.436,0.437,0.439,0.44,0.441,0.443,0.444,0.446,0.446,0.448,0.45,0.451,0.452,0.455,0.456,0.459,0.461,0.464,0,0.615,0.615,0.614,0.613,0.612,0,0,0.611,0.612,0.612,0.612,0.612,0.613,0.613,0.614,0.615,0,0,0.613,0.609,0.604,0.599,0,0,0,0,0,0.552,0.553,0.554,0.554,0.555,0.556,0.556,0.557,0.557,0.557,0.557,0.557,0.557,0.557,0.557,0.558,0.558,0.559,0.56,0.56,0.56,0.561,0.561,0.562,0.563,0.563,0.563,0.564,0.564,0.565,0.566,0.566,0.567,0.567,0.567,0.568,0.568,0.568,0.568,0.568,0.568,0.568,0.568,0.568,0.569,0.569,0.569,0.57,0.57,0.571,0.571,0.572,0.572,0.572,0.572,0.572,0.572,0.572,0.572,0.572,0.571,0.571,0.57,0.57,0.57,0.569,0.569,0,0,0,0,0,0,0,0,0.472,0.471,0.47,0.469,0.467,0.464,0.462,0.459,0.457,0.455,0.454,0.452,0.451,0.449,0.447,0.446,0.444,0.442,0.441,0.439,0.437,0.435,0.434,0.432,0.431,0.429,0.427,0.426,0.424,0.423,0.421,0.419,0.417,0.416,0.415,0.413,0.412,0.41,0.409,0.408,0.406,0.405,0.404,0.402,0.401,0.4,0.399,0.398,0.397,0.396,0.395,0.394,0.393,0.392,0.391,0.39,0.39,0.389,0.389,0.389,0.389,0.389,0.389,0.39,0.391,0.391,0.392,0.393,0.393,0.393,0.395,0.396,0.397,0.399,0.401,0.403,0.404,0.406,0.407,0.409,0.41,0.41,0.412,0.412,0.413,0.414,0.415,0.416,0.416,0.417,0.418,0.419,0.421,0.422,0.423,0.423,0.424,0.425,0,0,0.615,0.619,0.622,0.625,0.628,0.633,0.642,0,0,0,0.675,0.682,0.687,0.692,0.696,0.698,0.697,0.698,0.698,0.699,0.699,0.699,0.7,0.7,0.701,0.702,0.703,0.703,0.704,0.705,0.707,0.707,0.709,0.709,0.711,0.712,0.712,0.712,0.712,0.712,0.712,0.712,0.713,0.713,0.714,0.714,0.715,0.716,0.717,0.717,0.718,0.718,0.718,0.718,0.718,0.718,0.719,0.719,0.719,0.718,0.718,0.718,0.718,0.718,0.718,0.719,0.719,0.72,0.722,0.722,0.724,0.725,0.727,0.728,0.728,0.729,0.73,0.731,0.731,0.732,0.733,0.734,0.734,0.735,0.735,0.735,0.736,0.736,0.736,0.737,0.738,0.739,0.739,0.739,0.739,0.739,2.15,2.15,2.157,2.157,2.165,2.172,2.172,2.18,2.188,2.196,2.196,2.204,2.204,2.212,2.22,2.228,2.236,2.244,2.252,2.252,2.26,2.26,2.269,2.269,2.269,2.277,2.277,2.277,2.277,2.277,2.269,2.269,2.269,2.269,2.269,2.26,2.26,2.26,2.26,2.269,2.269,2.269,2.269,2.277,2.286,2.294,2.294,2.294,2.303,2.311,2.311,2.32,2.32,2.329,2.329,2.329,2.338,2.338,2.338,2.338,2.338,2.338,2.338,2.329,2.338,2.329,2.32,2.32,2.311,2.311,2.303,0,0,0,0,0,0,0,0,0,0,0,0,0,0,0,0,0,0,0,0,0,0,0,0,0,0,0,0,0,0.549,0.545,0.541,0.538,0.537,0.536,0.536,0.535,0.534,0.533,0.532,0.531,0.53
0,0,0,0,0,0,0,0,0,0,0,0,0,0,0,0,0,0,0,0,0,0,0,0,0,0,0,0,0,0,0,0.368,0.369,0.369,0.37,0.37,0.371,0.371,0.372,0.373,0.374,0.375,0.375,0.376,0.376,0.377,0.378,0.378,0.379,0.379,0.379,0.38,0.38,0.381,0.381,0.382,0.383,0.383,0.384,0.385,0.386,0.387,0.387,0.388,0.388,0.389,0.39,0.391,0.391,0.392,0.393,0.393,0.394,0.395,0.395,0.396,0.396,0.397,0.398,0.399,0.4,0.401,0.401,0.402,0.403,0.404,0.405,0.406,0.407,0.408,0.409,0.409,0.41,0.411,0.412,0.413,0.413,0.414,0.415,0.416,0.417,0.418,0.419,0.421,0.421,0.422,0.423,0.424,0.425,0.426,0.426,0.427,0.428,0.429,0.43,0.431,0.432,0.433,0.434,0.435,0.437,0.438,0.439,0.44,0.442,0.443,0.445,0.446,0.447,0.448,0.45,0.452,0.453,0.455,0.457,0.46,0.462,0.464,0.468,0,0.613,0.612,0.611,0.611,0,0,0.609,0.609,0.609,0.609,0.61,0.61,0.61,0.611,0.611,0.61,0.608,0.604,0.599,0,0,0,0,0.553,0.551,0.551,0.551,0.552,0.553,0.554,0.554,0.555,0.555,0.555,0.555,0.555,0.555,0.556,0.556,0.556,0.556,0.556,0.556,0.557,0.558,0.558,0.558,0.559,0.559,0.559,0.56,0.561,0.561,0.561,0.562,0.563,0.563,0.564,0.565,0.565,0.565,0.565,0.566,0.566,0.566,0.566,0.566,0.566,0.566,0.566,0.567,0.567,0.567,0.568,0.568,0.569,0.569,0.57,0.57,0.57,0.57,0.57,0.57,0.57,0.57,0.569,0.569,0.568,0.568,0.567,0.567,0.566,0.566,0,0,0,0,0,0,0,0.473,0.472,0.471,0.47,0.469,0.467,0.465,0.462,0.459,0.457,0.456,0.454,0.452,0,0.449,0.448,0.446,0.445,0.443,0.441,0.439,0.438,0.436,0.434,0.433,0.431,0.43,0.428,0.426,0.424,0.423,0.421,0.419,0.417,0.416,0.415,0.413,0.412,0.41,0.409,0.408,0.407,0.406,0.404,0.403,0.402,0.4,0.399,0.398,0.397,0.396,0.395,0.394,0.393,0.392,0.392,0.391,0.39,0.389,0.389,0.389,0.389,0.39,0.39,0.391,0.391,0.392,0.393,0.393,0.394,0.394,0.395,0.396,0,0,0,0.403,0.405,0.407,0.408,0.409,0.41,0.412,0.413,0.413,0.414,0.415,0.416,0.417,0.418,0.419,0.42,0.421,0,0.423,0.424,0.425,0.425,0.426,0,0.613,0.613,0.612,0.616,0.618,0.62,0.625,0.63,0.636,0,0.654,0.662,0.67,0.678,0.684,0.69,0.693,0.695,0.695,0.695,0.696,0.697,0.698,0.698,0.699,0.699,0.7,0.7,0.701,0.702,0.703,0.704,0.705,0.706,0.707,0.707,0.708,0.709,0.709,0.709,0.709,0.709,0.709,0.71,0.71,0.711,0.712,0.712,0.712,0.713,0.714,0.715,0.715,0.715,0.715,0.716,0.715,0.716,0.716,0.716,0.716,0.716,0.715,0.715,0.716,0.716,0.716,0.717,0.717,0.718,0.72,0.722,0.722,0.723,0.724,0.725,0.726,0.728,0.728,0.729,0.729,0.73,0.73,0.731,0.732,0.733,0.733,0.733,0.733,0.734,0.734,0.735,0.735,0.735,0.736,0.735,0.737,2.127,2.135,2.142,2.15,2.142,2.15,2.165,2.165,2.172,2.18,2.188,2.188,2.196,2.204,2.212,2.22,2.228,2.228,2.236,2.244,2.244,2.252,2.252,2.26,2.26,2.26,2.26,2.26,2.26,2.26,2.252,2.252,2.252,2.252,2.252,2.252,2.244,2.244,2.252,2.252,2.252,2.252,2.26,2.269,2.277,2.277,2.277,2.286,2.294,2.303,2.303,2.311,2.311,2.311,2.32,2.32,2.32,2.329,2.329,2.329,2.329,2.329,2.329,2.329,2.32,2.32,2.311,2.311,2.303,2.294,2.294,0,0,0,0,0,0,0,0,0,0,0,0,0,0,0,0,0,0,0,0,0,0,0,0,0,0,0,0,0,0,0.54,0.538,0.536,0.536,0.536,0.535,0.534,0.533,0.532,0.531,0.53,0.53
0,0,0,0,0,0,0,0,0,0,0,0,0,0,0,0,0,0,0,0,0,0,0,0,0,0,0,0,0,0,0,0,0,0,0.37,0.37,0.371,0.372,0.373,0.374,0.375,0.376,0.376,0.377,0.377,0.378,0.378,0.379,0.379,0.38,0.38,0.381,0.381,0.382,0.382,0.383,0.384,0.384,0.385,0.385,0.386,0.387,0.388,0.388,0.389,0.39,0.391,0.391,0.392,0.392,0.393,0.394,0.395,0.395,0.396,0.396,0.397,0.397,0.398,0.399,0.4,0.401,0.402,0.403,0.404,0.405,0.406,0.406,0.407,0.408,0.409,0.41,0.411,0.412,0.412,0.413,0.414,0.415,0.415,0.417,0.418,0.419,0.42,0.421,0.422,0.423,0.423,0.425,0.425,0.426,0.427,0.428,0.428,0.429,0.43,0.431,0.432,0.434,0.434,0.436,0.437,0.439,0.44,0.441,0.443,0.444,0.446,0.447,0.448,0.449,0.45,0.452,0.454,0.456,0.458,0.461,0.463,0,0.469,0,0,0.61,0.609,0.608,0.608,0.607,0.606,0.606,0.607,0.608,0.608,0.608,0.608,0.609,0.607,0.605,0.6,0.596,0,0,0,0,0.553,0.551,0.551,0.551,0.552,0.551,0.553,0.552,0.553,0.554,0.554,0.554,0.554,0.554,0.554,0.554,0.554,0.554,0.554,0.554,0.554,0.555,0.555,0.556,0.556,0.556,0.557,0.557,0.558,0.558,0.559,0.559,0.56,0.56,0.561,0.561,0.562,0.562,0.563,0.563,0.564,0.564,0.564,0.564,0.564,0.564,0.564,0.565,0.565,0.565,0.566,0.566,0.567,0.567,0.567,0.568,0.568,0.568,0.568,0.568,0.568,0.568,0.568,0.567,0.567,0.566,0.565,0.565,0.564,0.564,0.564,0,0,0,0,0,0,0,0.473,0.472,0.471,0.47,0.47,0.468,0.465,0.463,0.46,0.458,0.456,0.455,0.453,0.452,0.45,0.448,0.447,0.445,0.444,0.442,0.44,0.438,0.436,0.434,0.433,0.431,0.43,0.428,0.427,0.425,0.423,0.421,0.419,0.418,0.416,0.415,0.413,0.412,0.411,0.41,0.409,0.407,0.406,0.404,0.403,0.402,0.401,0.4,0.399,0.398,0.397,0.396,0.395,0.394,0.393,0.392,0.391,0.391,0.39,0.39,0.39,0.39,0.391,0.391,0.392,0.392,0.393,0.394,0.394,0.395,0.395,0.396,0,0,0,0.402,0.404,0.406,0.407,0.409,0.41,0.412,0.413,0.414,0.415,0.416,0.417,0.418,0.418,0.419,0.42,0.421,0.422,0.423,0.424,0.425,0.425,0.426,0,0.61,0.61,0.61,0.61,0.612,0.613,0.615,0.617,0.621,0.625,0.632,0.639,0.647,0.655,0.663,0.669,0.676,0.68,0.684,0.688,0.689,0.695,0.696,0.696,0.697,0.698,0.699,0.699,0.699,0.7,0.7,0.702,0.702,0.703,0.703,0.703,0.704,0.705,0.706,0.706,0.706,0.706,0.706,0.706,0.707,0.707,0.707,0.708,0.709,0.71,0.71,0.711,0.712,0.712,0.712,0.712,0.712,0.712,0.713,0.712,0.712,0.712,0.712,0.712,0.712,0.712,0.713,0.714,0.714,0.715,0.716,0.717,0.719,0.72,0.721,0.722,0.722,0.723,0.724,0.726,0.726,0.727,0.728,0.728,0.728,0.729,0.73,0.729,0.73,0.73,0.73,0.731,0.732,0.733,0.733,0.733,0.732,0.734,2.12,2.127,2.127,2.135,2.142,2.142,2.15,2.157,2.165,2.165,2.172,2.18,2.18,2.188,2.196,2.204,2.212,2.22,2.22,2.228,2.236,2.236,2.244,2.244,2.244,2.252,2.252,2.252,2.252,2.244,2.244,2.236,2.236,2.236,2.236,2.236,2.236,2.236,2.236,2.236,2.236,2.244,2.244,2.252,2.26,2.26,2.269,2.277,2.286,2.286,2.294,2.294,2.303,2.303,2.311,2.311,2.311,2.32,2.32,2.32,2.32,2.311,2.311,2.311,2.311,2.311,2.303,2.303,2.294,2.286,2.286,2.277,0,0,0,0,0,0,0,0,0,0,0,0,0,0,0,0,0,0,0,0,0,0,0,0,0,0,0,0,0,0.537,0.536,0.536,0.536,0.536,0.535,0.534,0.533,0.532,0.53,0.53,0.529
