0.668,0.668,0.668,0.669,0.67,0.671,0.672,0.673,0.674,0.675,0.676,0.677,0.678,0.679,0.679,0.68,0.681,0.682,0.682,0.682,0.682,0.682,0.682,0.683,0.683,0.684,0.684,0.684,0.684,0.684,0.684,0.684,0.684,0.685,0.685,0.685,0.685,0.685,0.686,0.686,0.686,0.686,0.686,0.687,0.687,0.686,0.686,0.687,0.686,0.686,0.687,0.687,0.687,0.688,0.688,0,0,0,0,0,0,0,0,0,0,0,0,0,0,0,0,0,0,0,0,0,0,0,0,0,0,0,0,0,0.346,0.346,0.346,0.346,0.346,0.346,0.346,0.346,0.345,0.345,0.345,0.345,0.345,0.345,0.345,0.345,0.345,0.345,0.346,0.346,0.346,0.346,0.346,0.346,0.346,0.346,0.346,0.346,0.346,0.346,0.346,0.347,0.347,0.347,0.347,0.347,0.348,0.348,0.348,0.349,0.349,0.349,0.349,0.349,0.348,0.348,0.348,0.348,0.348,0.348,0.348,0.348,0.348,0.348,0.348,0.348,0.348,0.349,0.349,0.349,0.349,0.349,0.349,0.349,0.349,0.35,0.35,0.35,0.35,0.35,0.35,0.35,0.35,0.35,0.35,0.35,0.35,0.35,0.35,0.35,0.35,0.35,0.35,0.35,0.351,0.351,0.351,0.351,0.351,0.352,0.352,0.352,0.352,0.352,0.352,0.352,0.352,0.352,0.352,0.352,0.352,0.352,0.352,0.352,0.352,0.352,0.352,0.352,0.353,0.353,0.353,0.353,0.353,0.353,0.353,0.354,0.354,0.354,0.354,0.354,0.354,0.354,0.354,0.354,0.354,0.354,0.354,0.354,0.355,0.355,0.355,0.355,0.355,0.355,0.355,0.355,0.355,0.355,0.355,0.356,0.356,0.356,0.356,0.356,0.356,0.356,0.356,0.356,0.357,0.357,0.357,0.357,0.357,0.357,0.358,0.358,0.358,0.358,0.358,0.358,0.358,0.358,0.358,0.358,0.358,0.358,0.358,0.358,0.359,0.359,0.359,0.359,0.359,0.359,0.359,0.359,0.359,0.359,0.359,0.359,0.359,0.359,0.359,0.359,0.359,0.359,0.359,0.359,0.359,0.359,0.359,0.359,0.359,0.359,0.359,0.36,0.36,0.36,0.36,0.36,0.36,0.36,0.36,0.36,0.361,0.361,0.361,0.361,0.361,0.361,0.361,0.361,0.362,0.362,0.362,0.362,0.362,0.362,0.362,0.362,0.362,0.362,0.362,0.362,0.362,0.362,0.362,0.362,0.362,0.363,0.363,0.363,0.363,0.364,0.364,0.363,0.363,0.363,0.363,0.363,0.363,0.363,0.363,0.364,0.364,0.364,0.364,0.364,0.364,0.364,0.364,0.364,0.364,0.364,0.365,0.365,0.365,0.365,0.365,0.365,0.365,0.365,0.365,0.365,0.365,0.365,0.365,0.365,0.365,0.365,0.365,0.365,0.366,0.366,0.366,0.366,0.366,0.366,0.366,0.366,0.366,0.366,0.367,0.367,0.367,0.367,0.367,0.367,0.367,0.368,0.368,0.367,0.368,0.368,0.367,0.367,0.367,0.368,0.368,0.368,0.368,0.368,0.368,0.368,0.369,0.369,0.369,0.369,0.369,0.369,0.369,0.369,0.369,0.369,0.369,0.368,0.368,0.369,0.369,0.369,0.369,0.369,0.369,0.369,0.369,0.37,0.37,0.37,0.37,0.37,0.37,0.371,0.371,0.371,0.371,0.371,0.371,0.371,0.371,0.371,0.371,0.371,0.371,0.371,0.372,0.372,0.372,0.373,0.373,0.373,0.373,0.373,0.373,0.373,0.373,0.374,0.374,0.374,0.374,0.374,0.374,0.374,0.374,0.374,0.374,0.374,0.374,0.374,0.374,0.374,0.374,0.374,0.374,0.374,0.374,0.374,0.374,0.374,0.374,0.375,0.375,0.375,0.375,0.375,0.375,0.375,0.375,0.375,0.375,0.376,0.376,0.376,0.376,0.376,0.376,0.376,0.376,0.376,0.376,0.376,0.376,0.376,0.376,0.376,0.376,0.376,0.376,0.376,0.376,0.377,0.377,0.377,0.377,0.377,0.377,0.377,0.377,0.377,0.377,0.377,0.377,0.377,0.377,0.377,0.377,0.377,0.377,0.378,0.378,0.378,0.378,0.378,0.379,0.379,0.379,0.379,0.379,0.38,0.38,0.38,0.38,0.38,0.38,0.38,0.38,0.38,0.38,0.38,0.38,0.38,0.38,0.38,0.381,0.381,0.381,0.381,0.381,0.381,0.382,0.382,0.382,0.382,0.382,0.382,0.382,0.382
0.667,0.668,0.668,0.669,0.67,0.67,0.671,0.673,0.673,0.674,0.676,0.676,0.677,0.678,0.679,0.679,0.68,0.68,0.681,0.681,0.681,0.681,0.682,0.682,0.682,0.682,0.682,0.682,0.682,0.682,0.682,0.682,0.682,0.682,0.683,0.683,0.684,0.684,0.684,0.685,0.685,0.685,0.685,0.685,0.685,0.685,0.685,0.685,0.685,0.685,0.685,0.685,0.685,0.685,0.686,0,0,0,0,0,0,0,0,0,0,0,0,0,0,0,0,0,0,0,0,0,0,0,0,0,0,0,0,0,0,0.345,0.345,0.345,0.345,0.345,0.344,0.344,0.344,0.344,0.344,0.344,0.344,0.344,0.344,0.344,0.344,0.345,0.345,0.345,0.345,0.345,0.345,0.345,0.345,0.345,0.345,0.345,0.345,0.345,0.346,0.346,0.346,0.346,0.347,0.347,0.347,0.347,0.348,0.348,0.348,0.348,0.348,0.348,0.348,0.348,0.347,0.347,0.347,0.347,0.347,0.347,0.347,0.347,0.348,0.348,0.348,0.348,0.348,0.348,0.348,0.348,0.348,0.349,0.349,0.349,0.349,0.349,0.349,0.349,0.349,0.349,0.349,0.349,0.349,0.349,0.349,0.349,0.349,0.349,0.349,0.349,0.349,0.349,0.35,0.35,0.35,0.35,0.351,0.351,0.351,0.351,0.351,0.351,0.351,0.351,0.352,0.352,0.351,0.351,0.351,0.351,0.351,0.351,0.351,0.351,0.351,0.351,0.352,0.352,0.352,0.352,0.352,0.352,0.353,0.353,0.353,0.353,0.353,0.353,0.353,0.353,0.353,0.353,0.353,0.353,0.354,0.354,0.354,0.354,0.354,0.354,0.354,0.354,0.354,0.355,0.354,0.354,0.355,0.355,0.355,0.355,0.355,0.355,0.355,0.355,0.355,0.355,0.356,0.356,0.356,0.356,0.356,0.357,0.357,0.357,0.357,0.357,0.357,0.357,0.357,0.357,0.357,0.357,0.357,0.357,0.357,0.357,0.357,0.357,0.357,0.358,0.358,0.358,0.358,0.358,0.358,0.358,0.358,0.358,0.358,0.358,0.358,0.358,0.358,0.358,0.358,0.358,0.358,0.358,0.358,0.358,0,0.358,0.358,0.358,0.359,0.359,0.359,0.359,0.359,0.359,0.359,0.359,0.36,0.36,0.36,0.36,0.36,0.36,0.36,0.36,0.361,0.361,0.361,0.361,0.361,0.361,0.361,0.361,0.361,0.361,0.361,0.361,0.361,0.361,0.361,0.361,0.361,0.361,0.362,0.362,0.362,0.363,0.363,0.363,0.362,0.362,0.363,0.363,0.363,0.363,0.363,0.363,0.363,0.363,0.363,0.363,0.363,0.363,0.364,0.364,0.364,0.364,0.364,0.364,0.364,0.364,0.364,0.364,0.364,0.364,0.364,0.364,0.364,0.364,0.364,0.364,0.364,0.364,0.364,0.364,0.365,0.365,0.365,0.365,0.365,0.365,0.365,0.365,0.366,0.366,0.366,0.366,0.366,0.366,0.367,0.367,0.367,0.367,0.367,0.367,0.367,0.367,0.367,0.367,0.367,0.367,0.367,0.367,0.367,0.367,0.368,0.368,0.368,0.368,0.368,0.368,0.368,0.368,0.368,0.368,0.368,0.368,0.368,0.368,0.368,0.368,0.368,0.368,0.368,0.368,0.369,0.369,0.369,0.369,0.369,0.369,0.369,0.369,0.37,0.37,0.37,0.37,0.37,0.37,0.37,0.37,0.37,0.37,0.37,0.37,0.37,0.371,0.371,0.371,0.371,0.372,0.372,0.372,0.372,0.372,0.372,0.372,0.372,0.373,0.373,0.373,0.373,0.373,0.373,0.373,0.374,0.374,0.373,0.373,0.373,0.373,0.373,0.373,0.373,0.373,0.373,0.373,0.373,0.373,0.373,0.373,0.374,0.374,0.374,0.374,0.374,0.374,0.374,0.374,0.374,0.374,0.374,0.375,0.375,0.375,0.375,0.375,0.375,0.376,0.376,0.375,0.376,0.375,0.375,0.375,0.375,0.375,0.375,0.375,0.376,0.376,0.376,0.376,0.376,0.376,0.376,0.376,0.376,0.376,0.376,0.376,0.376,0.376,0.376,0.376,0.376,0.376,0.376,0.376,0.376,0.377,0.377,0.377,0.377,0.378,0.378,0.378,0.378,0.378,0.378,0.378,0.378,0.379,0.378,0.378,0.379,0.379,0.379,0.379,0.379,0.379,0.379,0.379,0.379,0.379,0.38,0.38,0.38,0.38,0.38,0.38,0.38,0.381,0.381,0.381,0.381,0.381,0.381,0.381
0.667,0.667,0.668,0.668,0.67,0.67,0.671,0.672,0.673,0.673,0.675,0.676,0.676,0.677,0.678,0.679,0.679,0.679,0.679,0.679,0.679,0.68,0.68,0.68,0.68,0.68,0.68,0.68,0.68,0.68,0.68,0.681,0.681,0.681,0.682,0.682,0.682,0.682,0.682,0.683,0.683,0.683,0.683,0.683,0.683,0.683,0.684,0.683,0.684,0.684,0.684,0.683,0.684,0.684,0.685,0,0,0,0,0,0,0,0,0,0,0,0,0,0,0,0,0,0,0,0,0,0,0,0,0,0,0,0,0,0.343,0.343,0.343,0.343,0.343,0.343,0.343,0.343,0.343,0.343,0.343,0.343,0.343,0.343,0.343,0.343,0.344,0.344,0.344,0.344,0.344,0.344,0.344,0.344,0.344,0.344,0.344,0.344,0.345,0.345,0.345,0.345,0.345,0.345,0.346,0.346,0.346,0.347,0.347,0.347,0.347,0.347,0.347,0.347,0.347,0.347,0.347,0.346,0.346,0.346,0.347,0.347,0.347,0.347,0.347,0.347,0.347,0.347,0.347,0.347,0.347,0.347,0.348,0.348,0.348,0.348,0.348,0.348,0.348,0.348,0.348,0.348,0.348,0.348,0.348,0.348,0.348,0.348,0.348,0.348,0.348,0.348,0.348,0.349,0.349,0.349,0.349,0.35,0.35,0.35,0.35,0.351,0.351,0.351,0.351,0.351,0.351,0.351,0.351,0.351,0.351,0.351,0.351,0.35,0.35,0.35,0.35,0.351,0.351,0.351,0.351,0.351,0.351,0.351,0.352,0.352,0.352,0.352,0.352,0.352,0.352,0.352,0.352,0.353,0.353,0.353,0.353,0.353,0.353,0.353,0.353,0.353,0.353,0.353,0.354,0.354,0.354,0.354,0.354,0.354,0.354,0.354,0.354,0.354,0.354,0.354,0.354,0.354,0.355,0.355,0.355,0.355,0.356,0.356,0.356,0.356,0.356,0.356,0.356,0.356,0.356,0.356,0.356,0.356,0.356,0.356,0.356,0.356,0.356,0.356,0.356,0.356,0.357,0.357,0.357,0.357,0.357,0.357,0.357,0.357,0.357,0.357,0.357,0.357,0.357,0.357,0.357,0.357,0.357,0.357,0.357,0.357,0,0.357,0.357,0.357,0.358,0.358,0.358,0.358,0.358,0.358,0.358,0.358,0.359,0.359,0.359,0.359,0.359,0.359,0.359,0.36,0.36,0.36,0.36,0.36,0.36,0.36,0.36,0.361,0.36,0.36,0.36,0.36,0.36,0.36,0.36,0.36,0.36,0,0,0,0.361,0.361,0.361,0.361,0.361,0.361,0.362,0.362,0.362,0.361,0.362,0.362,0.362,0.362,0.362,0.362,0.362,0.363,0.363,0.363,0.363,0.363,0.363,0.363,0.363,0.363,0.363,0.363,0.363,0.363,0.363,0.363,0.363,0.363,0.363,0.363,0.363,0.364,0.364,0.364,0.364,0.364,0.364,0.364,0.364,0.364,0.364,0.364,0.365,0.365,0.365,0.365,0.365,0.366,0.366,0.366,0.366,0.366,0.366,0.366,0.366,0.366,0.366,0.366,0.366,0.366,0.366,0.366,0.366,0.367,0.367,0.367,0.367,0.367,0.367,0.367,0.367,0.367,0.367,0.367,0.367,0.367,0.367,0.367,0.367,0.367,0.367,0.367,0.367,0.368,0.368,0.368,0.368,0.368,0.368,0.369,0.369,0.369,0.369,0.369,0.369,0.369,0.369,0.369,0.369,0.369,0.369,0.369,0.369,0.369,0.369,0.37,0.37,0.37,0.37,0.371,0.371,0.371,0.371,0.371,0.371,0.371,0.371,0.371,0.372,0.372,0.372,0.372,0.372,0.372,0.373,0.373,0.372,0.372,0.372,0.372,0.372,0.372,0.371,0.372,0.372,0.372,0.372,0.372,0.372,0.373,0.373,0.373,0.373,0.373,0.373,0.374,0.373,0.373,0.374,0.374,0.374,0.374,0.374,0.374,0.374,0.375,0.375,0.374,0.374,0.374,0.374,0.374,0.374,0.374,0.374,0.374,0.374,0.374,0.374,0.374,0.374,0.374,0.375,0.375,0.374,0.375,0.375,0.375,0.375,0.375,0.375,0.375,0.375,0.375,0.375,0.375,0.375,0.375,0.375,0.376,0.376,0.376,0.376,0.376,0.377,0.377,0.377,0.377,0.377,0.377,0.377,0.377,0.377,0.377,0.377,0.377,0.377,0.378,0.378,0.378,0.378,0.378,0.378,0.378,0.378,0.378,0.378,0.379,0.379,0.379,0.379,0.38,0.38,0.38,0.38,0.38,0.38,0.38
0.666,0.667,0.668,0.668,0.669,0.67,0.67,0.67,0.671,0.672,0.673,0.674,0.675,0.676,0.676,0.677,0.678,0.678,0.679,0.678,0.678,0.679,0.679,0.679,0.679,0.679,0.679,0.679,0.679,0.679,0.679,0.679,0.679,0.679,0.68,0.68,0.681,0.681,0.681,0.682,0.682,0.682,0.682,0.682,0.682,0.682,0.682,0.682,0.682,0.682,0,0,0,0,0,0,0,0,0,0,0,0,0,0,0,0,0,0,0,0,0,0,0,0,0,0,0,0,0,0,0,0,0,0,0,0.342,0.342,0.342,0.342,0.342,0.342,0.342,0.342,0.342,0.342,0.342,0.342,0.343,0.343,0.343,0.343,0.343,0.343,0.343,0.343,0.343,0.343,0.343,0.343,0.343,0.344,0.344,0.344,0.344,0.344,0.344,0.345,0.345,0.345,0.345,0.346,0.346,0.346,0.346,0.346,0.346,0.346,0.346,0.346,0.346,0.346,0.346,0.346,0.346,0.346,0.346,0.346,0.346,0.346,0.346,0.346,0.346,0.346,0.346,0.346,0.347,0.347,0.347,0.347,0.347,0.347,0.347,0.347,0.347,0.347,0.347,0.347,0.347,0.347,0.347,0.347,0.347,0.347,0.347,0.347,0.347,0.348,0.348,0.348,0.348,0.349,0.349,0.349,0.349,0.35,0.35,0.35,0.35,0.35,0.35,0.35,0.35,0.35,0.35,0.35,0.35,0.35,0.35,0.35,0.35,0.35,0.35,0.35,0.35,0.35,0.35,0.35,0.351,0.351,0.351,0.351,0.351,0.351,0.351,0.351,0.352,0.352,0.352,0.352,0.352,0.352,0.352,0.352,0.352,0.352,0.352,0.353,0.353,0.353,0.353,0.353,0.353,0.353,0.353,0.353,0.353,0.353,0.353,0.353,0.353,0.353,0.353,0.354,0.354,0.354,0.354,0.355,0.355,0.355,0.355,0.355,0.355,0.355,0.355,0.355,0.355,0.355,0.355,0.355,0.355,0.355,0.355,0.355,0.355,0.355,0.355,0.356,0.356,0.356,0.356,0.356,0.356,0.356,0.356,0.356,0.356,0.356,0.356,0.356,0.356,0.356,0.356,0.356,0.356,0.356,0.357,0.357,0.356,0.356,0.357,0.357,0.357,0.357,0.357,0.357,0.357,0.357,0.357,0.357,0.358,0.358,0.358,0.358,0.358,0.358,0.358,0.359,0.359,0.359,0.359,0.359,0.359,0.36,0.36,0.36,0.359,0.359,0.359,0.359,0.359,0.359,0.359,0.359,0,0,0,0.36,0.36,0.36,0.36,0.36,0.36,0.361,0.361,0.361,0.36,0.361,0.361,0.361,0.361,0.361,0.361,0.361,0.362,0.362,0.362,0.362,0.362,0.362,0.362,0.362,0.362,0.362,0.362,0.362,0.362,0.362,0.362,0.362,0.362,0.362,0.362,0.363,0.363,0.363,0.363,0.363,0.363,0.363,0.363,0.363,0.364,0.364,0.364,0.364,0.364,0.364,0.364,0.364,0.365,0.365,0.365,0.365,0.365,0.365,0.366,0.366,0.366,0.366,0.365,0.365,0.365,0.365,0.365,0.366,0.366,0.366,0.366,0.366,0.366,0.366,0.366,0.367,0.366,0.366,0.366,0.366,0.366,0.366,0.366,0.366,0.366,0.367,0.367,0.367,0.367,0.367,0.367,0.367,0.367,0.367,0.368,0.368,0.368,0.368,0.368,0.368,0.368,0.369,0.368,0.368,0.368,0.368,0.368,0.369,0.369,0.369,0.369,0.369,0.369,0.369,0.369,0.37,0.37,0.37,0.37,0.37,0.37,0.371,0.371,0.371,0.371,0.371,0.371,0.371,0.371,0.372,0.372,0.371,0.371,0.371,0.371,0.371,0.371,0.37,0.371,0.371,0.371,0.371,0.371,0.371,0.372,0.372,0.372,0.372,0.372,0.373,0.373,0.373,0.373,0.373,0.373,0.373,0.373,0.374,0.374,0.374,0.374,0.374,0.374,0.374,0.374,0.374,0.373,0.373,0.373,0.373,0.373,0.373,0.373,0.373,0.373,0.373,0.373,0.374,0.374,0.374,0.374,0.374,0.374,0.374,0.374,0.374,0.374,0.374,0.374,0.374,0.374,0.374,0.374,0.374,0.375,0.375,0.375,0.375,0.376,0.376,0.376,0.376,0.376,0.376,0.376,0.376,0.376,0.376,0.376,0.376,0.376,0.376,0.376,0.376,0.377,0.377,0.377,0.377,0.377,0.377,0.377,0.377,0.377,0.378,0.378,0.378,0.379,0.379,0.379,0.379,0.379,0.38,0.38
0.665,0.666,0.667,0.668,0.668,0.669,0.67,0.67,0.67,0.671,0.672,0.673,0.673,0.674,0.675,0.676,0.676,0.676,0.676,0.676,0.676,0.677,0.677,0.677,0.677,0.677,0.677,0.677,0.677,0.677,0.677,0.678,0.678,0.678,0.679,0.679,0.679,0.679,0.68,0.68,0.68,0.681,0.681,0.681,0.681,0.68,0.681,0.681,0.681,0.681,0,0,0,0,0,0,0,0,0,0,0,0,0,0,0,0,0,0,0,0,0,0,0,0,0,0,0,0,0,0,0,0,0,0,0.342,0.342,0.342,0.342,0.342,0.342,0.342,0.342,0.342,0.341,0.341,0.341,0.342,0.342,0.342,0.342,0.342,0.342,0.342,0.343,0.343,0.342,0.343,0.343,0.343,0.343,0.343,0.343,0.343,0.343,0.344,0.344,0.344,0.344,0.344,0.344,0.345,0.345,0.345,0.345,0.345,0.345,0.345,0.345,0.345,0.345,0.345,0.345,0.345,0.345,0.345,0.345,0.345,0.345,0.346,0.346,0.346,0.346,0.346,0.346,0.346,0.346,0.346,0.346,0.346,0.346,0.346,0.346,0.346,0.346,0.346,0.346,0.346,0.346,0.346,0.346,0.346,0.346,0.346,0.346,0.347,0.347,0.347,0.347,0.347,0.348,0.348,0.348,0.348,0.349,0.349,0.349,0.349,0.349,0.349,0.349,0.349,0.349,0.349,0.349,0.349,0.349,0.349,0.349,0.349,0.349,0.349,0.349,0.349,0.349,0.349,0.349,0.349,0.35,0.35,0.35,0.35,0.35,0.35,0.35,0.351,0.351,0.351,0.351,0.351,0.351,0.351,0.351,0.351,0.352,0.351,0.351,0.352,0.352,0.352,0.352,0.352,0.352,0.352,0.352,0.352,0.352,0.352,0.352,0.352,0.352,0.352,0.353,0.353,0.353,0.353,0.354,0.354,0.354,0.354,0.354,0.354,0.354,0.354,0.354,0.354,0.354,0.354,0.354,0.354,0.354,0.354,0.354,0.354,0.354,0.354,0.355,0.355,0.355,0.355,0.355,0.355,0.355,0.355,0.355,0.355,0.355,0.355,0.355,0.355,0.355,0.355,0.355,0.355,0.355,0.356,0.356,0.356,0.356,0.356,0.356,0.356,0.356,0.356,0.356,0.356,0.356,0.356,0.356,0.356,0.357,0.357,0.357,0.357,0.357,0.357,0.357,0.358,0.358,0.358,0.358,0.358,0.358,0.359,0.358,0.358,0.358,0.358,0.358,0.358,0.358,0.358,0.358,0.358,0.358,0,0,0.359,0.359,0.359,0.359,0.359,0.36,0.36,0.36,0.36,0.36,0.36,0.36,0.36,0.36,0.36,0.36,0.36,0.361,0.361,0.361,0.361,0.361,0.361,0.361,0.361,0.361,0.361,0.361,0.361,0.361,0.361,0.361,0.361,0.361,0.361,0.361,0.362,0.362,0.362,0.362,0.362,0.363,0.363,0.363,0.363,0.363,0.363,0.363,0.363,0.363,0.363,0.363,0.364,0.364,0.364,0.364,0.364,0.364,0.365,0.365,0.365,0.365,0.365,0.365,0.365,0.365,0.365,0.365,0.365,0.365,0.365,0.365,0.365,0.365,0.366,0.366,0.366,0.365,0.365,0.365,0.365,0.366,0.366,0.365,0.366,0.366,0.366,0.366,0.366,0.366,0.366,0.366,0.366,0.366,0.367,0.367,0.367,0.367,0.367,0.367,0.367,0.367,0.367,0.367,0.367,0.367,0.367,0.367,0.368,0.368,0.368,0.368,0.368,0.368,0.368,0.368,0.369,0.369,0.369,0.369,0.369,0.369,0.369,0.369,0.37,0.37,0.37,0.37,0.37,0.371,0.371,0.371,0.37,0.37,0.37,0.37,0.37,0.37,0.369,0.369,0.369,0.369,0.37,0.37,0.37,0.371,0.371,0.371,0.371,0.371,0.372,0.372,0.372,0.372,0.372,0.372,0.372,0.372,0.373,0.373,0.373,0.373,0.373,0.373,0.373,0.373,0.372,0.372,0.372,0.372,0.372,0.372,0.372,0.372,0.372,0.372,0.372,0.372,0.372,0.372,0.372,0.372,0.372,0.372,0.373,0.373,0.373,0.373,0.373,0.373,0.373,0.373,0.373,0.373,0.373,0.374,0.374,0.374,0.374,0.374,0.374,0.375,0.375,0.375,0.375,0.375,0.375,0.375,0.375,0.375,0.375,0.375,0.376,0.375,0.375,0.376,0.376,0.376,0.376,0.376,0.376,0.376,0.376,0.376,0.376,0.377,0.377,0.377,0.378,0.378,0.378,0.378,0.378,0.379
0.666,0.666,0.666,0.667,0.668,0.668,0.668,0.669,0.67,0.67,0.671,0.672,0.672,0.673,0.673,0.674,0.675,0.676,0.675,0.675,0.675,0.676,0.676,0.676,0.676,0.676,0.676,0.676,0.676,0.676,0.676,0.676,0.676,0.676,0.677,0.677,0.678,0.679,0.679,0.679,0.679,0.679,0.679,0.68,0.679,0.679,0.68,0.679,0.679,0.679,0.68,0,0,0,0,0,0,0,0,0,0,0,0,0,0,0,0,0,0,0,0,0,0,0,0,0,0,0,0,0,0.342,0,0,0,0.341,0.341,0.341,0.341,0.341,0.341,0.341,0.341,0.341,0.341,0.34,0.341,0.341,0.341,0.341,0.341,0.341,0.341,0.342,0.342,0.342,0.342,0.342,0.342,0.342,0.342,0.342,0.342,0.343,0.343,0.343,0.343,0.343,0.343,0.343,0.343,0.344,0.344,0.344,0.344,0.344,0.344,0.344,0.344,0.344,0.344,0.344,0.344,0.344,0.344,0.344,0.344,0.344,0.345,0.345,0.345,0.345,0.345,0.345,0.345,0.345,0.345,0.345,0.345,0.346,0.346,0.345,0.345,0.346,0.346,0.346,0.346,0.346,0.346,0.345,0.345,0.346,0.346,0.346,0.346,0.346,0.346,0.346,0.346,0.347,0.347,0.347,0.347,0.348,0.348,0.348,0.348,0.348,0.348,0.348,0.348,0.348,0.348,0.348,0.348,0.348,0.348,0.348,0.348,0.348,0.348,0.348,0.348,0.348,0.348,0.348,0.348,0.348,0.349,0.349,0.349,0.349,0.349,0.349,0.35,0.35,0.35,0.35,0.35,0.35,0.35,0.35,0.351,0.351,0.35,0.351,0.351,0.351,0.351,0.351,0.351,0.351,0.351,0.351,0.351,0.351,0.351,0.351,0.351,0.351,0.352,0.352,0.352,0.352,0.352,0.352,0.352,0.353,0.353,0.353,0.353,0.353,0.353,0.353,0.353,0.353,0.353,0.353,0.353,0.353,0.353,0.353,0.353,0.353,0.354,0.353,0.354,0.354,0.354,0.354,0.354,0.354,0.354,0.354,0.354,0.354,0.354,0.354,0.354,0.354,0.354,0.355,0.355,0.354,0.355,0.355,0.355,0.355,0.355,0.355,0.355,0.355,0.355,0.355,0.355,0.355,0.355,0.355,0.356,0.356,0.356,0.356,0.356,0.356,0.356,0.357,0.357,0.357,0.357,0.357,0.357,0.357,0.357,0.357,0.357,0.357,0.357,0.357,0.357,0.357,0.357,0.357,0.357,0.357,0.357,0.357,0.357,0.358,0.358,0.358,0.358,0.358,0,0.359,0.359,0.359,0.359,0.359,0.359,0.359,0.359,0.359,0.359,0.359,0.36,0.36,0.36,0.36,0.36,0.36,0.36,0.36,0.36,0.36,0.36,0.36,0.36,0.36,0.36,0.36,0.361,0.361,0.361,0.361,0.361,0.361,0.361,0.361,0.361,0.362,0.362,0.362,0.362,0.362,0.362,0.362,0.362,0.363,0.363,0.363,0.363,0.363,0.363,0.364,0.364,0.364,0.364,0.364,0.364,0.364,0.364,0.364,0.364,0.364,0.364,0.364,0.364,0.364,0.364,0.364,0.364,0.364,0.365,0.364,0.364,0.364,0.364,0.364,0.365,0.365,0.365,0.365,0.365,0.365,0.365,0.365,0.365,0.366,0.366,0.366,0.365,0.366,0.366,0.366,0.366,0.366,0.366,0.366,0.366,0.366,0.366,0.366,0.367,0.367,0.367,0.367,0.367,0.367,0.367,0.367,0.367,0.367,0.367,0.367,0.368,0.368,0.368,0.368,0.368,0.368,0.369,0.369,0.368,0.369,0.369,0.369,0.369,0.369,0.369,0.369,0.369,0.369,0.369,0.369,0.369,0.369,0.369,0.369,0.368,0.369,0.369,0.369,0.369,0.37,0.37,0.37,0.371,0.371,0.371,0.371,0.371,0.371,0.371,0.371,0.371,0.372,0.372,0.372,0.372,0.372,0.372,0.372,0.372,0.371,0.371,0.371,0.371,0.371,0.371,0.371,0.371,0.371,0.371,0.371,0.371,0.371,0.371,0.371,0.371,0.371,0.371,0.371,0.371,0.371,0.371,0.372,0.372,0.372,0.372,0.372,0.372,0.372,0.373,0.373,0.373,0.373,0.373,0.373,0.374,0.373,0.374,0.374,0.374,0.374,0.374,0.374,0.374,0.374,0.374,0.374,0.374,0.374,0.374,0.374,0.375,0.375,0.375,0.375,0.375,0.375,0.375,0.376,0.376,0.376,0.376,0.377,0.377,0.377,0.377,0.377,0.377
0.665,0.666,0.666,0.667,0.668,0.668,0.668,0.668,0.668,0.669,0.67,0.67,0.67,0.671,0.673,0.673,0.673,0.674,0.674,0.674,0.674,0.674,0.674,0.674,0.674,0.674,0.674,0.674,0.674,0.674,0.674,0.675,0.675,0.675,0.676,0.676,0.676,0.677,0.677,0.678,0.678,0.679,0.679,0.679,0.679,0.679,0.679,0.679,0.679,0.679,0,0,0,0,0,0,0,0,0,0,0,0,0,0,0,0,0,0,0,0,0,0,0,0,0,0,0,0,0,0,0.341,0,0,0,0.341,0.341,0.341,0.34,0.34,0.34,0.34,0.34,0.34,0.34,0.34,0.34,0.34,0.34,0.34,0.34,0.341,0.34,0.341,0.341,0.341,0.341,0.341,0.341,0.341,0.341,0.341,0.342,0.342,0.342,0.342,0.342,0.342,0.342,0.343,0.343,0.343,0.343,0.343,0.343,0.343,0.343,0.343,0.343,0.343,0.343,0.343,0.343,0.343,0.343,0.343,0.343,0.343,0.344,0.344,0.344,0.344,0.344,0.344,0.344,0.344,0.344,0.345,0.345,0.345,0.345,0.345,0.345,0.345,0.345,0.345,0.345,0.345,0.345,0.345,0.345,0.345,0.345,0.345,0.345,0.345,0.345,0.345,0.346,0.346,0.346,0.346,0.346,0.347,0.347,0.347,0.347,0.347,0.347,0.347,0.347,0.347,0.347,0.347,0.347,0.347,0.347,0.347,0.347,0.347,0.347,0.347,0.347,0.347,0.347,0.347,0.348,0.348,0.348,0.348,0.348,0.348,0.348,0.348,0.349,0.349,0.349,0.349,0.349,0.349,0.35,0.35,0.35,0.35,0.35,0.35,0.35,0.35,0.35,0.35,0.35,0.35,0.35,0.35,0.35,0.35,0.35,0.35,0.35,0.351,0.35,0.351,0.351,0.351,0.351,0.351,0.351,0.351,0.351,0.352,0.352,0.352,0.352,0.352,0.352,0.352,0.352,0.352,0.352,0.352,0.352,0.352,0.352,0.352,0.352,0.353,0.353,0.353,0.353,0.353,0.353,0.353,0.353,0.353,0.353,0.354,0.353,0.353,0.353,0.353,0.354,0.354,0.354,0.354,0.354,0.354,0.354,0.354,0.354,0.354,0.354,0.354,0.355,0.355,0.354,0.354,0.354,0.355,0.355,0.355,0.355,0.355,0.355,0.355,0.356,0.356,0.356,0.356,0.356,0.356,0.356,0.357,0.357,0.357,0.357,0.357,0.357,0.357,0.357,0.357,0.356,0.356,0.356,0.356,0.357,0.357,0.357,0.357,0.357,0.357,0.357,0,0,0.358,0.358,0.358,0.358,0.358,0.358,0.358,0.358,0.358,0.358,0.358,0.358,0.359,0.359,0.359,0.359,0.359,0.359,0.359,0.36,0.359,0.36,0.359,0.36,0.36,0.36,0.36,0.36,0.36,0.36,0.36,0.36,0.36,0.36,0.361,0.361,0.361,0.361,0.361,0.361,0.361,0.361,0.361,0.361,0.362,0.362,0.362,0.362,0.362,0.362,0.363,0.363,0.363,0.363,0.363,0.363,0.363,0.363,0.363,0.363,0.363,0.363,0.363,0.363,0.363,0.363,0.363,0.364,0.364,0.364,0.364,0.364,0.363,0.364,0.364,0.364,0.364,0.364,0.364,0.364,0.364,0.364,0.364,0.364,0.364,0.364,0.364,0.364,0.364,0.365,0.365,0.365,0.365,0.365,0.365,0.365,0.365,0.366,0.366,0.366,0.366,0.366,0.366,0.366,0.366,0.366,0.366,0.366,0.366,0.367,0.367,0.367,0.367,0.367,0.367,0.367,0.367,0.367,0.367,0.367,0.367,0.368,0.368,0.368,0.368,0.368,0.368,0.369,0.368,0.368,0.368,0.368,0.368,0.368,0.367,0.368,0.368,0.368,0.368,0.369,0.369,0.369,0.369,0.369,0.37,0.37,0.37,0.37,0.37,0.37,0.37,0.37,0.371,0.371,0.371,0.371,0.371,0.371,0.371,0.371,0.37,0.37,0.37,0.37,0.37,0.37,0.37,0.37,0.37,0.37,0.37,0.37,0.37,0.37,0.37,0.37,0.37,0.37,0.37,0.37,0.371,0.371,0.371,0.371,0.371,0.371,0.371,0.371,0.371,0.372,0.372,0.372,0.372,0.372,0.372,0.372,0.372,0.372,0.372,0.372,0.373,0.373,0.373,0.373,0.373,0.373,0.373,0.373,0.373,0.373,0.374,0.374,0.374,0.374,0.374,0.374,0.374,0.374,0.375,0.375,0.375,0.376,0.376,0.376,0.376,0.376,0.376,0.376
0.665,0.665,0.665,0.666,0.666,0.667,0.667,0.667,0.667,0.668,0.668,0.668,0.669,0.67,0.67,0.671,0.672,0.673,0.673,0.673,0.673,0.673,0.673,0.673,0.673,0.673,0.673,0.673,0.673,0.673,0.673,0.673,0.673,0.673,0.674,0.674,0.675,0.675,0.676,0.676,0.677,0.677,0.678,0.678,0.678,0.678,0.678,0.679,0.679,0.679,0,0,0,0,0,0,0,0,0,0,0,0,0,0,0,0,0,0,0,0,0,0,0,0,0,0,0,0,0,0.341,0.341,0.341,0.341,0.341,0.341,0.34,0.34,0.34,0.34,0.339,0.34,0.339,0.339,0.339,0.339,0.339,0.339,0.339,0.34,0.34,0.34,0.34,0.34,0.34,0.34,0.34,0.34,0.34,0.34,0.34,0.34,0.341,0.341,0.341,0.341,0.341,0.341,0.341,0.342,0.342,0.342,0.342,0.342,0.342,0.342,0.342,0.342,0.342,0.342,0.342,0.342,0.342,0.342,0.342,0.343,0.343,0.343,0.343,0.343,0.343,0.343,0.343,0.343,0.343,0.343,0.343,0.344,0.344,0.344,0.344,0.344,0.344,0.344,0.344,0.344,0.344,0.344,0.344,0.344,0.344,0.344,0.344,0.344,0.344,0.345,0.345,0.345,0.345,0.345,0.345,0.346,0.346,0.346,0.346,0.346,0.346,0.346,0.346,0.346,0.346,0.346,0.346,0.346,0.346,0.346,0.346,0.346,0.346,0.346,0.346,0.346,0.346,0.346,0.346,0.347,0.347,0.347,0.347,0.347,0.347,0.347,0.347,0.348,0.348,0.348,0.348,0.348,0.348,0.349,0.349,0.349,0.349,0.349,0.349,0.349,0.349,0.349,0.349,0.349,0.349,0.349,0.349,0.349,0.349,0.349,0.349,0.35,0.35,0.35,0.35,0.35,0.35,0.35,0.35,0.35,0.35,0.35,0.35,0.35,0.351,0.351,0.351,0.351,0.351,0.351,0.351,0.351,0.351,0.351,0.351,0.351,0.351,0.351,0.351,0.351,0.352,0.352,0.352,0.352,0.352,0.353,0.353,0.353,0.353,0.353,0.353,0.353,0.353,0.353,0.353,0.353,0.353,0.353,0.353,0.353,0.353,0.353,0.353,0.353,0.353,0.353,0.354,0.354,0.354,0.353,0.353,0.354,0.354,0.354,0.354,0.354,0.354,0.354,0.355,0.355,0.355,0.355,0.355,0.355,0.356,0.356,0.356,0.356,0.356,0.356,0.356,0.356,0.356,0.356,0.356,0.356,0.356,0.356,0.356,0.356,0.356,0.356,0.356,0.356,0.357,0.357,0.357,0.357,0.357,0.357,0.357,0.357,0.357,0.357,0.357,0.357,0.357,0.357,0.357,0.358,0.358,0.358,0.358,0.358,0.358,0.358,0.358,0.358,0.358,0.358,0.358,0.358,0.358,0.358,0.359,0.359,0.359,0.359,0.359,0.36,0.36,0.36,0.36,0.36,0.36,0.36,0.36,0.361,0.361,0.361,0.361,0.361,0.361,0.361,0.361,0.361,0.362,0.362,0.362,0.362,0.362,0.362,0.362,0.362,0.362,0.362,0.362,0.362,0.362,0.362,0.362,0.363,0.363,0.363,0.363,0.363,0.363,0.363,0.363,0.363,0.363,0.363,0.363,0.363,0.363,0.363,0.364,0.364,0.364,0.364,0.364,0.364,0.364,0.363,0.363,0.364,0.364,0.364,0.364,0.364,0.364,0.364,0.364,0.365,0.364,0.365,0.365,0.365,0.365,0.365,0.365,0.365,0.365,0.366,0.365,0.365,0.366,0.366,0.366,0.366,0.366,0.366,0.366,0.366,0.366,0.366,0.366,0.367,0.367,0.367,0.367,0.367,0.367,0.367,0.367,0.367,0.367,0.367,0.367,0.367,0.367,0.367,0.367,0.367,0.367,0.367,0.368,0.368,0.368,0.369,0.369,0.369,0.369,0.369,0.369,0.369,0.369,0.369,0.369,0.37,0.37,0.37,0.37,0.37,0.37,0.37,0.369,0.369,0.369,0.369,0.369,0.369,0.369,0.369,0.369,0.369,0.369,0.369,0.369,0.369,0.369,0.369,0.369,0.369,0.369,0.37,0.37,0.37,0.37,0.37,0.37,0.37,0.37,0.37,0.37,0.37,0.371,0.371,0.371,0.371,0.371,0.371,0.371,0.371,0.371,0.371,0.371,0.371,0.372,0.372,0.372,0.372,0.372,0.373,0.372,0.372,0.372,0.372,0.373,0.373,0.373,0.373,0.373,0.373,0.374,0.374,0.374,0.374,0.375,0.375,0.375,0.375,0.375,0.375,0.376
0.665,0.665,0.665,0.665,0.665,0.665,0.665,0.665,0.666,0.666,0.667,0.667,0.668,0.668,0.669,0.67,0.67,0.671,0.671,0.671,0.671,0.671,0.671,0.671,0.671,0.672,0.672,0.672,0.672,0.672,0.672,0.672,0.672,0.672,0.673,0.673,0.673,0.673,0.674,0.675,0.675,0.676,0.676,0.676,0.677,0.676,0.678,0.678,0.677,0.679,0.679,0,0,0,0,0,0,0,0,0,0,0,0,0,0,0,0,0,0,0,0,0,0,0,0,0,0,0,0,0,0.341,0.341,0.341,0.341,0.34,0.34,0.34,0.34,0.339,0.339,0.339,0.339,0.339,0.339,0.339,0.339,0.339,0.339,0.339,0.339,0.339,0.339,0.339,0.339,0.339,0.339,0.339,0.339,0.339,0.34,0.34,0.34,0.34,0.34,0.34,0.34,0.341,0.341,0.341,0.341,0.341,0.341,0.341,0.341,0.341,0.341,0.341,0.341,0.341,0.341,0.341,0.341,0.341,0.342,0.342,0.342,0.342,0.342,0.342,0.342,0.342,0.342,0.342,0.342,0.342,0.343,0.343,0.343,0.343,0.343,0.343,0.343,0.343,0.343,0.343,0.343,0.343,0.343,0.343,0.343,0.343,0.343,0.343,0.344,0.344,0.344,0.344,0.344,0.344,0.345,0.345,0.345,0.345,0.345,0.345,0.345,0.345,0.345,0.345,0.345,0.345,0.345,0.346,0.345,0.345,0.345,0.345,0.345,0.345,0.346,0.345,0.345,0.346,0.346,0.346,0.346,0.346,0.346,0.346,0.346,0.346,0.346,0.347,0.347,0.347,0.347,0.347,0.348,0.348,0.348,0.348,0.348,0.348,0.348,0.348,0.348,0.348,0.348,0.348,0.348,0.348,0.348,0.348,0.348,0.348,0.349,0.349,0.349,0.349,0.349,0.349,0.349,0.349,0.349,0.349,0.349,0.349,0.349,0.349,0.35,0.35,0.35,0.35,0.35,0.35,0.35,0.35,0.35,0.35,0.35,0.35,0.35,0.35,0.35,0.35,0.351,0.351,0.351,0.351,0.352,0.352,0.352,0.352,0.352,0.352,0.352,0.352,0.352,0.352,0.352,0.352,0.352,0.352,0.352,0.352,0.352,0.352,0.352,0.352,0.352,0.352,0.353,0.353,0.353,0.353,0.353,0.353,0.353,0.353,0.353,0.353,0.353,0.354,0.354,0.354,0.354,0.354,0.354,0.355,0.355,0.355,0.355,0.355,0.355,0.355,0.355,0.355,0.355,0.355,0.355,0.355,0.355,0.355,0.355,0.355,0.356,0.356,0.356,0.356,0.356,0.356,0.356,0.356,0.356,0.356,0.356,0.356,0.356,0.356,0.356,0.356,0.356,0.356,0.356,0.356,0.357,0.357,0.357,0.357,0.357,0.357,0.357,0.357,0.357,0.357,0.357,0.357,0.358,0.358,0.358,0.358,0.358,0.358,0.358,0.359,0.359,0.359,0.359,0.359,0.359,0.359,0.359,0.36,0.36,0.36,0.36,0.36,0.36,0.36,0.36,0.361,0.361,0.361,0.361,0.361,0.361,0.361,0.361,0.361,0.361,0.361,0.361,0.361,0.361,0.361,0.361,0.362,0.362,0.362,0.362,0.362,0.362,0.362,0.362,0.362,0.362,0.362,0.362,0.363,0.363,0.363,0.363,0.363,0.363,0.363,0.363,0.363,0.363,0.363,0.363,0.363,0.363,0.363,0.363,0.363,0.363,0.363,0.363,0.364,0.364,0.364,0.364,0.364,0.364,0.364,0.364,0.364,0.364,0.365,0.365,0.365,0.365,0.365,0.365,0.365,0.365,0.365,0.365,0.365,0.365,0.365,0.366,0.366,0.366,0.366,0.366,0.366,0.366,0.366,0.366,0.366,0.366,0.366,0.366,0.366,0.366,0.366,0.366,0.366,0.366,0.367,0.367,0.367,0.367,0.367,0.368,0.368,0.368,0.368,0.368,0.368,0.368,0.368,0.368,0.369,0.369,0.369,0.369,0.369,0.369,0.369,0.369,0.368,0.368,0.368,0.368,0.368,0.368,0.368,0.368,0.368,0.368,0.368,0.368,0.368,0.368,0.368,0.368,0.369,0.369,0.369,0.369,0.369,0.369,0.369,0.369,0.369,0.369,0.369,0.37,0.37,0.37,0.37,0.37,0.37,0.37,0.37,0.37,0.37,0.37,0.37,0.37,0.371,0.371,0.371,0.371,0.371,0.371,0.372,0.371,0.371,0.372,0.372,0.372,0.372,0.372,0.372,0.372,0.372,0.373,0.373,0.373,0.374,0.374,0.374,0.374,0.374,0.374,0.374,0.374
0.663,0.664,0.664,0.664,0.664,0.664,0.665,0.664,0.665,0.665,0.665,0.665,0.666,0.667,0.668,0.669,0.669,0.67,0.67,0.67,0.67,0.67,0.67,0.67,0.67,0.67,0.67,0.67,0.67,0.67,0.67,0.67,0.67,0.671,0.671,0.671,0.672,0.672,0.673,0.673,0.673,0.674,0.674,0.675,0.676,0.676,0.676,0.677,0.676,0.678,0,0,0,0,0,0,0,0,0,0,0,0,0,0,0,0,0,0,0,0,0,0,0,0,0,0,0,0,0,0.341,0.341,0.341,0.341,0.34,0.34,0.339,0.339,0.339,0.339,0.339,0.338,0.338,0.338,0.338,0.338,0.338,0.338,0.338,0.338,0.338,0.338,0.339,0.339,0.339,0.339,0.339,0.339,0.339,0.339,0.339,0.339,0.339,0.339,0.339,0.339,0.339,0.339,0.34,0.34,0.34,0.34,0.34,0.34,0.34,0.34,0.34,0.34,0.34,0.34,0.34,0.34,0.34,0.341,0.341,0.341,0.341,0.341,0.341,0.341,0.341,0.341,0.341,0.341,0.341,0.341,0.342,0.342,0.342,0.342,0.342,0.342,0.342,0.342,0.342,0.342,0.342,0.342,0.342,0.342,0.342,0.342,0.343,0.343,0.343,0.343,0.343,0.344,0.344,0.344,0.344,0.344,0.344,0.344,0.344,0.344,0.344,0.344,0.344,0.344,0.344,0.344,0.345,0.345,0.344,0.344,0.345,0.345,0.345,0.344,0.344,0.344,0.344,0.345,0.345,0.345,0.345,0.345,0.345,0.345,0.345,0.345,0.345,0.346,0.346,0.346,0.346,0.347,0.347,0.347,0.347,0.347,0.347,0.347,0.347,0.347,0.347,0.347,0.347,0.347,0.347,0.347,0.348,0.348,0.348,0.348,0.348,0.348,0.348,0.348,0.348,0.348,0.348,0.348,0.349,0.349,0.348,0.348,0.348,0.349,0.349,0.349,0.349,0.349,0.349,0.349,0.349,0.349,0.349,0.349,0.349,0.349,0.349,0.349,0.349,0.349,0.35,0.35,0.35,0.351,0.351,0.351,0.351,0.351,0.351,0.351,0.351,0.351,0.351,0.351,0.351,0.351,0.351,0.351,0.351,0.351,0.351,0.351,0.351,0.351,0.351,0.351,0.352,0.352,0.352,0.352,0.352,0.352,0.352,0.352,0.352,0.352,0.352,0.352,0.353,0.353,0.353,0.353,0.354,0.354,0.354,0.354,0.354,0.354,0.354,0.354,0.354,0.354,0.354,0.354,0.354,0.354,0.355,0.355,0.355,0.355,0.355,0.355,0.355,0.355,0.355,0.355,0.355,0.355,0.355,0.355,0.355,0.355,0.355,0.355,0.355,0.355,0.355,0.355,0.355,0.356,0.356,0.356,0.356,0.356,0.356,0.356,0.356,0.356,0.356,0.356,0.356,0.356,0.357,0.357,0.357,0.357,0.357,0.357,0.357,0.358,0.358,0.358,0.358,0.358,0.358,0.358,0.358,0.359,0.359,0.359,0.359,0.359,0.359,0.359,0.36,0.36,0.36,0.36,0.36,0.36,0.36,0.36,0.36,0.36,0.36,0.36,0.36,0.36,0.36,0.361,0.361,0.361,0.361,0.361,0.361,0.361,0.361,0.361,0.361,0.361,0.361,0.361,0.361,0.362,0.362,0.362,0.362,0.362,0.362,0.362,0.362,0.362,0.362,0.362,0.362,0.362,0.362,0.362,0.362,0.362,0.362,0.362,0.363,0.363,0.363,0.363,0.363,0.363,0.363,0.363,0.364,0.364,0.364,0.364,0.364,0.364,0.364,0.364,0.364,0.364,0.364,0.364,0.364,0.364,0.364,0.364,0.364,0.365,0.365,0.365,0.365,0.365,0.365,0.366,0.365,0.365,0.365,0.365,0.365,0.365,0.365,0.365,0.365,0.365,0.366,0.366,0.366,0.366,0.366,0.367,0.367,0.367,0.367,0.367,0.367,0.367,0.367,0.367,0.367,0.368,0.368,0.368,0.368,0.368,0.368,0.368,0.368,0.368,0.367,0.367,0.367,0.367,0.367,0.367,0.367,0.367,0.367,0.367,0.367,0.367,0.367,0.367,0.368,0.368,0.368,0.368,0.368,0.368,0.368,0.368,0.369,0.368,0.369,0.369,0.369,0.369,0.369,0.369,0.369,0.369,0.369,0.369,0.369,0.369,0.369,0.369,0.369,0.369,0.37,0.37,0.37,0.37,0.371,0.371,0.371,0.371,0.371,0.371,0.371,0.371,0.371,0.371,0.371,0.372,0.372,0.372,0.372,0.373,0.373,0.373,0.373,0.373,0.373,0.373,0.374
0.663,0.663,0.663,0.663,0.664,0.663,0.663,0.663,0.664,0.664,0.664,0.665,0.665,0.666,0.667,0.668,0.668,0.668,0.668,0.669,0.669,0.669,0.669,0.669,0.669,0.669,0.669,0.67,0.67,0.67,0.67,0.67,0.67,0.67,0.67,0.67,0.67,0.67,0.67,0.671,0.672,0.672,0.673,0.673,0.674,0.674,0.676,0.676,0.676,0.676,0,0,0,0,0,0,0,0,0,0,0,0,0,0,0,0,0,0,0,0,0,0,0,0,0,0,0,0,0,0.34,0.34,0.34,0.34,0.34,0.34,0.339,0.339,0.339,0.338,0.338,0.338,0.338,0.338,0.338,0.338,0.338,0.338,0.338,0.338,0.338,0.338,0.338,0.338,0.338,0.338,0.338,0.338,0.338,0.338,0.338,0.338,0.338,0.338,0.338,0.339,0.339,0.339,0.339,0.339,0.339,0.339,0.339,0.339,0.339,0.339,0.339,0.339,0.339,0.339,0.339,0.339,0.34,0.34,0.34,0.34,0.34,0.34,0.34,0.34,0.34,0.34,0.34,0.34,0.34,0.34,0.341,0.341,0.341,0.341,0.341,0.341,0.341,0.341,0.341,0.341,0.342,0.341,0.341,0.341,0.342,0.342,0.342,0.342,0.342,0.342,0.343,0.343,0.343,0.343,0.343,0.343,0.343,0.344,0.344,0.344,0.344,0.344,0.344,0.344,0.344,0.344,0.344,0.344,0.344,0.344,0.344,0.343,0.344,0.344,0.343,0.343,0.343,0.344,0.344,0.344,0.344,0.344,0.344,0.344,0.344,0.344,0.344,0.345,0.345,0.345,0.345,0.346,0.346,0.346,0.346,0.346,0.346,0.346,0.346,0.346,0.346,0.346,0.346,0.346,0.346,0.347,0.347,0.347,0.347,0.347,0.347,0.347,0.347,0.347,0.348,0.348,0.348,0.348,0.348,0.348,0.348,0.348,0.348,0.348,0.348,0.348,0.348,0.348,0.348,0.348,0.348,0.348,0.348,0.348,0.348,0.348,0.348,0.348,0.348,0.348,0.349,0.349,0.349,0.349,0.35,0.35,0.35,0.35,0.35,0.35,0.35,0.35,0.35,0.351,0.351,0.351,0.35,0.35,0.35,0.35,0.35,0.35,0.35,0.35,0.351,0.351,0.351,0.351,0.351,0.351,0.351,0.351,0.351,0.351,0.351,0.351,0.351,0.351,0.352,0.352,0.352,0.352,0.353,0.353,0.353,0.353,0.353,0.353,0.353,0.353,0.353,0.354,0.354,0.354,0.354,0.354,0.354,0.354,0.354,0.354,0.354,0.354,0.354,0.354,0.354,0.354,0.354,0.354,0.354,0.354,0.354,0.354,0.354,0.354,0.354,0.354,0.354,0.354,0.355,0.355,0.355,0.355,0.355,0.355,0.355,0.355,0.355,0.355,0.355,0.355,0.356,0.356,0.356,0.356,0.356,0.356,0.356,0.356,0.357,0.357,0.357,0.357,0.357,0.357,0,0.357,0.357,0.358,0.358,0.358,0.358,0.358,0.358,0.358,0.358,0.358,0.359,0.359,0.359,0.359,0.359,0.359,0.359,0.36,0.359,0.359,0.359,0.359,0.36,0.36,0.36,0.36,0.36,0.36,0.36,0.36,0.36,0.36,0.361,0.361,0.361,0.361,0.361,0.361,0.361,0.361,0.361,0.361,0.361,0.361,0.361,0.361,0.361,0.361,0.361,0.361,0.361,0.361,0.361,0.361,0.361,0.361,0.362,0.362,0.362,0.362,0.362,0.362,0.362,0.363,0.363,0.363,0.363,0.363,0.363,0.363,0.363,0.363,0.363,0.363,0.363,0.363,0.363,0.363,0.363,0.363,0.364,0.364,0.364,0.364,0.364,0.364,0.364,0.364,0.365,0.365,0.364,0.364,0.365,0.365,0.365,0.365,0.364,0.364,0.365,0.365,0.365,0.365,0.365,0.366,0.366,0.366,0.366,0.366,0.366,0.366,0.366,0.366,0.366,0.367,0.367,0.367,0.367,0.367,0.367,0.367,0.367,0.367,0.367,0.367,0.367,0.367,0.367,0.367,0.367,0.367,0.367,0.367,0.367,0.367,0.367,0.367,0.367,0.367,0.367,0.367,0.367,0.367,0.367,0.367,0.367,0.367,0.368,0.368,0.368,0.368,0.368,0.368,0.368,0.368,0.368,0.368,0.368,0.368,0.368,0.368,0.369,0.369,0.369,0.369,0.369,0.37,0.37,0.37,0.37,0.37,0.37,0.37,0.37,0.37,0.37,0.371,0.371,0.371,0.371,0.371,0.371,0.372,0.372,0.372,0.372,0.372,0.372,0.372,0.372
0.663,0.663,0.663,0.663,0.663,0.663,0.663,0.663,0.663,0.663,0.663,0.663,0.664,0.665,0.665,0.666,0.667,0.667,0.667,0.667,0.668,0.668,0.668,0.668,0.668,0.668,0.668,0.668,0.668,0.669,0.669,0.669,0.669,0.669,0.669,0.669,0.669,0.669,0.669,0.67,0.67,0.67,0.671,0.672,0.672,0.673,0.674,0.675,0.675,0.675,0,0,0,0,0,0,0,0,0,0,0,0,0,0,0,0,0,0,0,0,0,0,0,0,0,0,0,0,0,0.339,0.339,0.339,0.339,0.339,0.339,0.338,0.338,0.338,0.338,0.337,0.337,0.337,0.337,0.337,0.337,0.337,0.337,0.337,0.337,0.337,0.337,0.337,0.337,0.337,0.337,0.337,0.337,0.337,0.337,0.337,0.337,0.337,0.337,0.337,0.337,0.338,0.338,0.338,0.338,0.338,0.338,0.338,0.338,0.338,0.338,0.338,0.338,0.338,0.338,0.338,0.339,0.339,0.339,0.339,0.339,0.339,0.339,0.339,0.339,0.339,0.339,0.339,0.339,0.339,0.339,0.34,0.34,0.34,0.34,0.34,0.34,0.34,0.34,0.34,0.34,0.34,0.341,0.34,0.34,0.341,0.341,0.341,0.341,0.341,0.342,0.342,0.342,0.342,0.342,0.343,0.343,0.343,0.343,0.343,0.343,0.343,0.343,0.343,0.343,0.343,0.343,0.343,0.343,0.343,0.343,0.343,0.343,0.343,0.343,0.343,0.343,0.343,0.343,0.343,0.343,0.343,0.343,0.344,0.344,0.344,0.344,0.344,0.344,0.344,0.344,0.345,0.345,0.345,0.345,0.345,0.345,0.345,0.345,0.345,0.345,0.345,0.345,0.345,0.345,0.346,0.346,0.346,0.346,0.346,0.346,0.346,0.346,0.347,0.347,0.347,0.347,0.347,0.347,0.347,0.347,0.347,0.347,0.347,0.347,0.347,0.347,0.347,0.347,0.347,0.347,0.347,0.347,0.347,0.347,0.347,0.347,0.347,0.347,0.347,0.347,0.348,0.348,0.348,0.348,0.348,0.349,0.349,0.349,0.349,0.349,0.349,0.35,0.35,0.35,0.35,0.35,0.35,0.349,0.349,0.349,0.349,0.349,0.349,0.349,0.349,0.35,0.35,0.35,0.35,0.35,0.35,0.35,0.35,0.35,0.35,0.35,0.35,0.35,0.351,0.351,0.351,0.351,0.351,0.352,0.352,0.352,0.352,0.352,0.352,0.353,0.353,0.353,0.353,0.353,0.353,0.353,0.353,0.353,0.353,0.353,0.353,0.353,0.353,0.353,0.354,0.354,0.354,0.353,0.353,0.353,0.353,0.353,0.353,0.353,0.353,0.353,0.353,0.354,0.354,0.354,0.354,0.354,0.354,0.354,0.354,0.354,0.355,0.355,0.355,0.355,0.355,0.355,0.355,0.355,0.355,0.355,0.355,0.356,0.356,0.356,0.356,0.356,0.356,0.356,0.356,0.356,0.356,0.357,0.357,0.357,0.357,0.357,0.357,0.357,0.357,0.357,0.358,0.358,0.358,0.358,0.358,0.358,0.358,0.358,0.358,0.358,0.358,0.359,0.359,0.359,0.359,0.359,0.359,0.359,0.359,0.36,0.36,0.36,0.36,0.36,0.36,0.36,0.36,0.36,0,0.36,0.36,0.36,0.36,0.36,0.36,0.36,0.36,0.36,0.36,0.36,0.36,0.36,0.36,0.36,0.361,0.361,0.361,0.361,0.361,0.361,0.361,0.361,0.362,0.362,0.362,0.362,0.362,0.362,0.362,0.362,0.362,0.362,0.362,0.362,0.362,0.362,0.362,0.362,0.362,0.362,0.363,0.363,0.363,0.363,0.363,0.364,0.364,0.364,0.364,0.364,0.364,0.364,0.364,0.364,0.364,0.364,0.364,0.364,0.364,0.364,0.364,0.364,0.364,0.364,0.364,0.365,0.365,0.365,0.365,0.365,0.365,0.365,0.365,0.365,0.366,0.366,0.366,0.366,0.366,0.366,0.366,0.366,0.366,0.366,0.366,0.366,0.366,0.366,0.366,0.366,0.366,0.366,0.366,0.366,0.366,0.366,0.366,0.366,0.366,0.366,0.366,0.366,0.366,0.367,0.367,0.367,0.367,0.367,0.367,0.367,0.367,0.367,0.367,0.367,0.367,0.367,0.367,0.367,0.367,0.368,0.368,0.368,0.368,0.369,0.369,0.369,0.369,0.369,0.369,0.369,0.369,0.369,0.369,0.369,0.37,0.37,0.37,0.37,0.37,0.37,0.371,0.371,0.371,0.371,0.371,0.371,0.371,0.371,0.371
0.662,0.662,0.662,0.663,0.662,0.663,0.662,0.662,0.663,0.663,0.663,0.663,0.663,0.664,0.665,0.665,0.665,0.665,0.665,0.665,0.665,0.666,0.666,0.666,0.666,0.666,0.667,0.667,0.668,0.668,0.668,0.668,0.668,0.668,0.668,0.668,0.668,0.668,0.668,0.668,0.668,0.669,0.67,0.67,0.67,0.671,0.673,0.673,0,0,0,0,0,0,0,0,0,0,0,0,0,0,0,0,0,0,0,0,0,0,0,0,0,0,0,0,0,0.337,0.338,0.338,0.338,0.338,0.338,0.338,0.338,0.337,0.337,0.337,0.337,0.337,0.336,0.336,0.336,0.336,0.336,0.336,0.336,0.336,0.336,0.336,0.336,0.336,0.336,0.336,0.336,0.336,0.336,0.337,0.337,0.337,0.337,0.337,0.337,0.337,0.337,0.337,0.337,0.337,0.337,0.337,0.337,0.337,0.337,0.337,0.337,0.337,0.338,0.338,0.338,0.338,0.338,0.338,0.338,0.338,0.338,0.338,0.338,0.338,0.338,0.338,0.338,0.339,0.339,0.339,0.339,0.339,0.339,0.339,0.339,0.339,0.339,0.339,0.339,0.339,0.339,0.339,0.339,0.34,0.34,0.34,0.34,0.34,0.34,0.34,0.341,0.341,0.341,0.341,0.341,0.342,0.342,0.342,0.342,0.342,0.342,0.342,0.342,0.342,0.342,0.342,0.342,0.342,0.342,0.342,0.342,0.342,0.342,0.342,0.342,0.342,0.342,0.342,0.342,0.342,0.342,0.343,0.343,0.343,0.343,0.343,0.343,0.343,0.343,0.343,0.344,0.344,0.344,0.344,0.344,0.344,0.344,0.344,0.344,0.344,0.344,0.344,0.344,0.344,0.344,0.344,0.345,0.345,0.345,0.345,0.345,0.345,0.346,0.346,0.346,0.346,0.346,0.346,0.346,0.346,0.346,0.346,0.346,0.346,0.346,0.346,0.346,0.346,0.346,0.346,0.346,0.346,0.346,0.346,0.346,0.346,0.346,0.346,0.346,0.346,0.346,0.347,0.347,0.347,0.347,0.347,0.348,0.348,0.348,0.348,0.348,0.349,0.349,0.349,0.349,0.349,0.349,0.349,0.349,0.349,0.349,0.348,0.348,0.348,0.348,0.349,0.349,0.349,0.349,0.349,0.349,0.349,0.349,0.349,0.349,0.349,0.35,0.349,0.35,0.35,0.35,0.35,0.35,0.35,0.351,0.351,0.351,0.351,0.352,0.351,0.352,0.352,0.352,0.352,0.352,0.353,0.353,0.353,0.353,0.353,0.353,0.353,0.353,0.353,0.353,0.353,0.353,0.353,0.353,0.353,0.353,0.353,0.352,0.352,0.352,0.352,0.353,0.353,0.353,0.353,0.353,0.353,0.353,0.353,0.353,0.353,0.354,0.354,0.354,0.354,0.354,0.354,0.354,0.354,0.354,0.354,0.354,0.355,0.355,0.355,0.355,0.355,0.355,0.355,0.355,0.355,0.355,0.355,0.356,0.356,0.356,0.356,0.356,0.356,0.356,0.356,0.356,0.357,0.357,0.357,0.357,0.357,0.357,0.357,0.357,0.357,0.357,0.358,0.358,0.358,0.358,0.358,0.358,0.358,0.358,0.358,0.359,0.359,0.359,0.359,0.359,0.359,0.359,0.359,0.359,0.359,0.359,0.359,0.359,0.359,0.359,0.359,0.359,0.359,0.359,0.359,0.359,0.36,0.36,0.36,0.36,0.36,0.36,0.36,0.36,0.36,0.36,0.36,0.36,0.361,0.361,0.361,0.361,0.361,0.361,0.361,0.361,0.361,0.361,0.361,0.361,0.361,0.362,0.362,0.361,0.361,0.361,0.362,0.362,0.362,0.362,0.362,0.363,0.363,0.363,0.363,0.363,0.363,0.363,0.363,0.363,0.363,0.363,0.363,0.363,0.363,0.363,0.363,0.363,0.363,0.363,0.363,0.363,0.364,0.364,0.364,0.364,0.364,0.364,0.364,0.364,0.364,0.364,0.364,0.365,0.364,0.364,0.364,0.365,0.364,0.365,0.365,0.365,0.365,0.365,0.365,0.365,0.365,0.365,0.365,0.365,0.365,0.365,0.365,0.365,0.365,0.365,0.365,0.365,0.366,0.366,0.366,0.366,0.366,0.366,0.366,0.366,0.366,0.366,0.366,0.366,0.366,0.366,0.366,0.367,0.367,0.367,0.367,0.367,0.368,0.368,0.368,0.368,0.368,0.369,0.369,0.369,0.369,0.369,0.369,0.369,0.369,0.369,0.369,0.369,0.369,0.369,0.37,0.37,0.37,0.37,0.37,0.37,0.37,0.37,0.37
0.661,0.661,0.662,0.662,0.662,0.661,0.661,0.661,0.662,0.662,0.662,0.662,0.662,0.663,0.663,0.664,0.664,0.664,0.664,0.664,0.664,0.665,0.665,0.665,0.665,0.665,0.665,0.665,0.666,0.667,0.666,0.667,0.666,0.666,0.667,0.666,0.666,0.666,0.666,0.666,0.667,0.667,0.668,0.668,0.669,0.67,0.67,0,0,0,0,0,0,0,0,0,0,0,0,0,0,0,0,0,0,0,0,0,0,0,0,0,0,0,0,0,0.336,0.336,0.336,0.337,0.337,0.337,0.337,0.337,0.337,0.336,0.336,0.336,0.336,0.336,0.335,0.335,0.335,0.335,0.335,0.335,0.335,0.335,0.335,0.336,0.336,0.336,0.336,0.336,0.336,0.336,0.336,0.336,0.336,0.336,0.336,0.336,0.336,0.336,0.336,0.336,0.336,0.336,0.336,0.336,0.336,0.336,0.336,0.336,0.337,0.337,0.337,0.337,0.337,0.337,0.337,0.337,0.337,0.337,0.337,0.337,0.337,0.337,0.337,0.337,0.337,0.338,0.338,0.338,0.338,0.338,0.338,0.338,0.338,0.338,0.338,0.338,0.338,0.338,0.339,0.339,0.339,0.339,0.339,0.339,0.339,0.339,0.34,0.34,0.34,0.34,0.34,0.34,0.341,0.341,0.341,0.341,0.341,0.341,0.341,0.341,0.341,0.341,0.341,0.341,0.341,0.341,0.341,0.341,0.341,0.341,0.341,0.341,0.341,0.341,0.341,0.341,0.341,0.341,0.341,0.342,0.342,0.342,0.342,0.342,0.342,0.342,0.342,0.343,0.343,0.343,0.343,0.343,0.343,0.343,0.343,0.343,0.343,0.343,0.343,0.343,0.343,0.343,0.343,0.343,0.344,0.344,0.344,0.344,0.344,0.345,0.345,0.345,0.345,0.345,0.345,0.345,0.346,0.346,0.346,0.346,0.346,0.345,0.346,0.346,0.345,0.345,0.345,0.345,0.345,0.345,0.345,0.345,0.345,0.345,0.345,0.345,0.345,0.345,0.346,0.346,0.346,0.346,0.346,0.346,0.346,0.347,0.347,0.347,0.347,0.348,0.348,0.348,0.348,0.348,0.348,0.348,0.348,0.348,0.348,0.348,0.348,0.348,0.348,0.348,0.348,0.348,0.348,0.348,0.349,0.349,0.348,0.349,0.349,0.349,0.349,0.349,0.349,0.349,0.349,0.349,0.349,0.35,0.35,0.35,0.35,0.351,0.351,0.351,0.351,0.351,0.351,0.351,0.352,0.352,0.352,0.352,0.352,0.351,0.352,0.352,0.351,0.351,0.352,0.352,0.352,0.352,0.352,0.352,0.352,0.352,0.352,0.352,0.352,0.352,0.352,0.352,0.352,0.352,0.352,0.352,0.353,0.352,0.352,0.353,0.353,0.353,0.353,0.353,0.353,0.353,0.353,0.353,0.353,0.353,0.353,0.353,0.354,0.354,0.354,0.354,0.354,0.354,0.354,0.354,0.354,0.354,0.355,0.355,0.355,0.355,0.355,0.355,0.355,0.355,0.355,0.356,0.356,0.356,0.356,0.356,0.356,0.356,0.356,0.357,0.357,0.357,0.357,0.357,0.357,0.357,0.357,0.358,0.358,0.358,0.358,0.358,0.358,0.358,0.358,0.358,0.358,0.358,0.358,0.358,0.358,0.358,0.358,0.358,0.358,0.358,0.358,0.358,0.358,0.359,0.359,0.359,0.359,0.359,0.359,0.359,0.359,0.359,0.359,0.359,0.359,0.359,0.36,0.36,0.36,0.36,0.36,0.36,0.36,0.361,0.361,0.361,0.361,0.361,0.361,0.361,0.361,0.361,0.36,0.36,0.36,0.361,0.361,0.361,0.361,0.361,0.362,0.362,0.362,0.362,0.362,0.362,0.362,0.362,0.363,0.363,0.362,0.362,0.362,0.362,0.362,0.362,0.362,0.362,0.362,0.363,0.363,0.363,0.363,0.363,0.363,0.363,0.363,0.363,0.363,0.363,0.363,0.363,0.364,0.364,0.364,0.363,0.364,0.364,0.364,0.364,0.364,0.364,0.364,0.364,0.364,0.364,0.364,0.364,0.364,0.364,0.364,0.364,0.364,0.364,0.364,0.364,0.365,0.365,0.365,0.365,0.365,0.365,0.365,0.365,0.365,0.365,0.365,0.365,0.365,0.365,0.366,0.366,0.366,0.366,0.366,0.366,0.367,0.367,0.367,0.367,0.367,0.367,0.368,0.368,0.368,0.368,0.368,0.368,0.368,0.368,0.368,0.368,0.369,0.369,0.369,0.369,0.369,0.369,0.369,0.369,0.369,0.369,0.369,0.369
0.661,0.661,0.661,0.661,0.66,0.66,0.66,0.66,0.66,0.66,0.66,0.66,0.66,0.662,0.662,0.662,0.662,0.663,0.663,0.663,0.663,0.663,0.663,0.663,0.664,0.664,0.664,0.665,0.665,0.665,0.665,0.665,0.665,0.665,0.665,0.665,0.664,0.664,0.664,0.664,0.665,0.665,0.665,0.666,0.667,0.668,0.669,0,0,0,0,0,0,0,0,0,0,0,0,0,0,0,0,0,0,0,0,0,0,0,0,0,0,0,0,0,0,0.335,0.335,0.335,0.335,0.336,0.336,0.336,0.335,0.335,0.335,0.335,0.335,0.335,0.335,0.335,0.335,0.334,0.334,0.335,0.335,0.335,0.335,0.335,0.335,0.335,0.335,0.335,0.335,0.335,0.335,0.335,0.335,0.335,0.335,0.335,0.335,0.335,0.335,0.335,0.335,0.335,0.335,0.336,0.336,0.336,0.336,0.336,0.336,0.336,0.336,0.336,0.337,0.337,0.337,0.337,0.337,0.337,0.337,0.336,0.336,0.336,0.337,0.337,0.337,0.337,0.337,0.337,0.337,0.337,0.337,0.337,0.337,0.337,0.337,0.337,0.338,0.338,0.338,0.338,0.338,0.338,0.338,0.339,0.339,0.339,0.339,0.339,0.339,0.339,0.339,0.339,0.34,0.34,0.34,0.34,0.34,0.34,0.34,0.34,0.34,0.34,0.34,0.34,0.34,0.34,0.34,0.34,0.34,0.34,0.34,0.34,0.34,0.34,0.34,0.34,0.34,0.34,0.341,0.341,0.341,0.341,0.341,0.341,0.341,0.342,0.342,0.342,0.342,0.342,0.342,0.342,0.342,0.342,0.342,0.342,0.342,0.342,0.342,0.342,0.342,0.343,0.343,0.343,0.343,0.343,0.343,0.343,0.344,0.344,0.344,0.344,0.344,0.344,0.345,0.345,0.345,0.345,0.345,0.345,0.345,0.345,0.345,0.345,0.345,0.345,0.344,0.344,0.344,0.344,0.344,0.344,0.344,0.344,0.344,0.345,0.345,0.345,0.345,0.345,0.345,0.345,0.345,0.345,0.346,0.346,0.346,0.346,0.346,0.347,0.347,0.347,0.347,0.347,0.347,0.347,0.347,0.347,0.347,0.347,0.347,0.347,0.347,0.347,0.347,0.347,0.347,0.347,0.348,0.348,0.348,0.348,0.348,0.348,0.348,0.348,0.348,0.348,0.348,0.348,0.349,0.349,0.349,0.349,0.349,0.35,0.35,0.35,0.35,0.35,0.35,0.35,0.351,0.351,0.351,0.351,0.351,0.351,0.351,0.351,0.351,0.351,0.351,0.351,0.351,0.351,0.351,0.351,0.351,0.351,0.351,0.351,0.351,0.351,0.351,0.351,0.351,0.351,0.351,0.352,0.352,0.351,0.351,0.352,0.352,0.352,0.352,0.352,0.352,0.352,0.352,0.352,0.352,0.353,0.352,0.353,0.353,0.353,0.353,0.353,0.353,0.353,0.353,0.353,0.353,0.354,0.354,0.354,0.354,0.354,0.354,0.354,0.354,0.354,0.354,0.355,0.355,0.355,0.355,0.355,0.355,0.355,0.355,0.356,0.356,0.356,0.356,0.356,0.356,0.356,0.357,0.357,0.357,0.357,0.357,0.357,0.357,0.357,0.357,0.357,0.357,0.357,0.357,0.357,0.357,0.357,0.357,0.357,0.357,0.357,0.358,0.358,0.358,0.358,0.358,0.358,0.358,0.358,0.358,0.358,0.358,0.358,0.358,0.358,0.358,0.358,0.358,0.358,0.359,0.359,0.359,0.359,0.359,0.36,0.36,0.36,0.36,0.36,0.36,0.36,0.36,0.36,0.36,0.36,0.359,0.36,0.36,0.36,0.36,0.36,0.361,0.361,0.361,0.361,0.361,0.361,0.361,0.361,0.362,0.362,0.361,0.361,0.361,0.361,0.361,0.361,0.361,0.361,0.361,0.362,0.362,0.362,0.362,0.362,0.362,0.362,0.362,0.362,0.362,0.362,0.362,0.362,0.363,0.363,0.363,0.363,0.363,0.363,0.363,0.363,0.363,0.363,0.363,0.364,0.364,0.364,0.364,0.364,0.364,0.363,0.363,0.363,0.363,0.364,0.364,0.364,0.364,0.364,0.364,0.364,0.364,0.364,0.364,0.364,0.364,0.364,0.364,0.364,0.364,0.364,0.364,0.365,0.365,0.365,0.365,0.366,0.366,0.366,0.366,0.367,0.367,0.367,0.367,0.367,0.367,0.367,0.367,0.367,0.367,0.367,0.367,0.367,0.368,0.368,0.368,0.368,0.368,0.368,0.368,0.368,0.368,0.368,0.368,0.368
0.66,0.66,0.66,0.66,0.66,0.66,0.66,0.66,0.659,0.659,0.659,0.659,0.66,0.66,0.66,0.66,0.661,0.661,0.661,0.661,0.661,0.661,0.662,0.662,0.663,0.663,0.663,0.663,0.663,0.664,0.664,0.664,0.664,0.664,0.664,0.663,0.663,0.663,0.663,0.663,0.663,0.663,0.663,0.664,0.665,0.666,0,0,0,0,0,0,0,0,0,0,0,0,0,0,0,0,0,0,0,0,0,0,0,0,0,0,0,0,0,0,0.334,0.334,0.334,0.334,0.334,0.334,0.335,0.335,0.334,0.334,0.334,0.334,0.334,0.334,0.334,0.334,0.334,0.334,0.334,0.334,0.334,0.334,0.334,0.334,0.334,0.334,0.334,0.334,0.334,0.334,0.334,0.334,0.334,0.334,0.334,0.334,0.334,0.334,0.334,0.334,0.334,0.335,0.335,0.335,0.335,0.335,0.335,0.335,0.335,0.335,0.336,0.336,0.336,0.336,0.336,0.336,0.336,0.336,0.336,0.336,0.336,0.336,0.336,0.336,0.336,0.336,0.336,0.336,0.337,0.337,0.337,0.337,0.336,0.337,0.337,0.337,0.337,0.337,0.337,0.337,0.337,0.337,0.337,0.338,0.338,0.338,0.338,0.338,0.338,0.338,0.338,0.339,0.339,0.339,0.339,0.339,0.339,0.339,0.339,0.339,0.339,0.339,0.339,0.339,0.34,0.34,0.34,0.339,0.339,0.339,0.339,0.339,0.339,0.339,0.339,0.34,0.34,0.34,0.34,0.34,0.34,0.34,0.34,0.341,0.341,0.341,0.341,0.341,0.341,0.341,0.341,0.341,0.341,0.341,0.342,0.342,0.341,0.342,0.342,0.342,0.342,0.342,0.342,0.342,0.342,0.342,0.343,0.343,0.343,0.343,0.343,0.343,0.343,0.344,0.344,0.344,0.344,0.344,0.344,0.344,0.344,0.344,0.344,0.344,0.344,0.344,0.344,0.344,0.344,0.344,0.343,0.344,0.344,0.343,0.344,0.344,0.344,0.344,0.344,0.344,0.344,0.344,0.344,0.345,0.345,0.345,0.345,0.345,0.345,0.346,0.346,0.346,0.346,0.346,0.346,0.346,0.346,0.346,0.346,0.346,0.346,0.346,0.346,0.346,0.346,0.346,0.346,0.346,0.347,0.347,0.347,0.347,0.347,0.347,0.347,0.347,0.347,0.347,0.347,0.347,0.348,0.348,0.348,0.348,0.348,0.349,0.349,0.349,0.349,0.349,0.349,0.349,0.349,0.35,0.35,0.35,0.35,0.35,0.35,0.35,0.35,0.35,0.35,0.35,0.35,0.35,0.35,0.35,0.35,0.35,0.35,0.35,0.35,0.35,0.35,0.35,0.35,0.35,0.351,0.351,0.351,0.351,0.351,0.351,0.351,0.351,0.351,0.351,0.351,0.351,0.351,0.352,0.352,0.352,0.352,0.352,0.352,0,0,0.352,0.352,0.352,0.352,0.353,0.353,0.353,0.353,0.353,0.353,0.353,0.353,0.353,0.353,0.353,0.353,0.354,0.354,0.354,0.354,0.354,0.354,0.354,0.355,0.355,0.355,0.355,0.355,0.355,0.355,0.355,0.356,0.356,0.356,0.356,0.356,0.356,0.356,0.356,0.356,0.356,0.356,0.356,0.356,0.356,0.356,0.356,0.356,0.356,0.356,0.357,0.357,0.357,0.357,0.357,0.357,0.357,0.357,0.357,0.357,0.357,0.357,0.357,0.357,0.357,0.357,0.357,0.357,0.357,0.357,0.358,0.358,0.358,0.358,0.358,0.358,0.359,0.359,0.359,0.359,0.359,0.359,0.358,0.358,0.358,0.358,0.359,0.359,0.359,0.359,0.36,0.36,0.36,0.36,0.361,0.361,0.361,0.361,0.361,0.361,0.361,0.361,0.36,0.36,0.36,0.36,0.36,0.36,0.36,0.36,0.361,0.361,0.361,0.361,0.361,0.361,0.361,0.361,0.361,0.361,0.361,0.361,0.361,0.361,0.361,0.362,0.362,0.362,0.362,0.362,0.362,0.362,0.362,0.363,0.363,0.363,0.363,0.363,0.363,0.363,0.363,0.363,0.362,0.362,0.363,0.363,0.363,0.363,0.363,0.363,0.363,0.363,0.363,0.363,0.363,0.363,0.363,0.363,0.364,0.364,0.364,0.364,0.364,0.364,0.364,0.364,0.365,0.365,0.365,0.366,0.366,0.366,0.366,0.366,0.366,0.366,0.366,0.366,0.366,0.366,0.366,0.366,0.367,0.367,0.367,0.367,0.367,0.367,0.367,0.367,0.367,0.367,0.367,0.367,0.367
0.659,0.659,0.659,0.659,0.658,0.658,0.658,0.658,0.658,0.658,0.658,0.658,0.658,0.658,0.659,0.659,0.659,0.66,0.66,0.66,0.66,0.66,0.66,0.66,0.661,0.661,0.662,0.662,0.663,0.663,0.663,0.663,0.663,0.663,0.663,0.662,0.661,0.661,0.661,0.661,0.661,0.662,0.662,0.663,0.663,0,0,0,0,0,0,0,0,0,0,0,0,0,0,0,0,0,0,0,0,0,0,0,0,0,0,0,0,0,0,0.332,0.333,0.333,0.333,0.333,0.333,0.333,0.333,0.333,0.333,0.333,0.333,0.333,0.333,0.333,0.333,0.333,0.333,0.333,0.333,0.333,0.333,0.333,0.333,0.333,0.333,0.333,0.333,0.333,0.333,0.334,0.334,0.333,0.333,0.333,0.333,0.333,0.333,0.333,0.333,0.333,0.333,0.334,0.334,0.334,0.334,0.334,0.334,0.334,0.334,0.335,0.335,0.335,0.335,0.335,0.335,0.335,0.335,0.335,0.335,0.335,0.335,0.335,0.335,0.335,0.335,0.335,0.335,0.336,0.336,0.336,0.336,0.336,0.336,0.336,0.336,0.336,0.336,0.336,0.336,0.336,0.337,0.337,0.337,0.337,0.337,0.337,0.337,0.337,0.337,0.337,0.338,0.338,0.338,0.338,0.338,0.338,0.338,0.338,0.338,0.338,0.338,0.338,0.339,0.339,0.339,0.339,0.339,0.339,0.339,0.339,0.339,0.339,0.339,0.339,0.339,0.339,0.339,0.339,0.339,0.339,0.339,0.339,0.34,0.34,0.34,0.34,0.34,0.34,0.34,0.34,0.34,0.34,0.341,0.341,0.341,0.341,0.341,0.341,0.341,0.341,0.341,0.341,0.341,0.341,0.341,0.342,0.342,0.342,0.342,0.342,0.343,0.343,0.343,0.343,0.343,0.343,0.343,0.343,0.343,0.343,0.343,0.343,0.343,0.343,0.343,0.343,0.343,0.343,0.343,0.343,0.343,0.343,0.343,0.343,0.343,0.343,0.343,0.343,0.343,0.343,0.343,0.343,0.344,0.344,0.344,0.344,0.344,0.344,0.345,0.345,0.345,0.345,0.345,0.345,0.345,0.345,0.345,0.345,0.345,0.345,0.345,0.345,0.345,0.345,0.345,0.345,0.345,0.345,0.346,0.346,0.346,0.346,0.346,0.346,0.346,0.346,0.346,0.346,0.346,0.347,0.347,0.347,0.347,0.347,0.348,0.348,0.348,0.348,0.348,0.348,0.348,0.348,0.349,0.349,0.349,0.349,0.349,0.349,0.349,0.349,0.349,0.349,0.349,0.349,0.349,0.349,0.349,0.349,0.349,0.349,0.349,0.349,0.349,0.349,0.349,0.349,0.349,0.35,0.35,0.35,0.35,0.35,0.35,0.35,0.35,0.35,0.35,0.35,0.35,0.35,0.351,0.351,0.351,0.351,0.351,0.351,0.351,0.351,0.351,0.351,0.351,0.352,0.352,0.352,0.352,0.352,0.352,0.352,0.352,0.352,0.352,0.352,0.353,0.353,0.353,0.353,0.353,0.353,0.354,0.354,0.354,0.354,0.354,0.354,0.354,0.354,0.354,0.354,0.354,0.354,0.355,0.355,0.355,0.355,0.355,0.355,0.355,0.355,0.355,0.355,0.355,0.355,0.355,0.355,0.355,0.355,0.355,0.356,0.356,0.356,0.356,0.356,0.356,0.356,0.357,0.357,0.357,0.357,0.357,0.357,0.356,0.356,0.356,0.356,0.356,0.356,0.356,0.356,0.356,0.357,0.357,0.357,0.357,0.357,0.358,0.358,0.358,0.358,0.358,0.358,0.358,0.357,0.357,0.357,0.357,0.358,0.358,0.358,0.358,0.358,0.359,0.359,0.36,0.36,0.36,0.36,0.36,0.36,0.36,0.36,0.36,0.36,0.359,0.359,0.359,0.359,0.359,0.359,0.36,0.36,0.36,0.36,0.36,0.36,0.36,0.36,0.36,0.36,0.36,0.36,0.36,0.361,0.361,0.361,0.361,0.361,0.361,0.361,0.361,0.361,0.361,0.362,0.362,0.362,0.362,0.362,0.362,0.362,0.362,0.361,0.361,0.361,0.361,0.361,0.362,0.362,0.362,0.362,0.362,0.362,0.362,0.362,0.363,0.362,0.362,0.362,0.362,0.362,0.363,0.363,0.363,0.363,0.363,0.363,0.364,0.364,0.364,0.364,0.365,0.365,0.365,0.365,0.365,0.365,0.365,0.365,0.365,0.365,0.365,0.365,0.366,0.366,0.366,0.366,0.366,0.366,0.366,0.366,0.366,0.366,0.366,0.366,0.366,0.366
0.658,0.658,0.658,0.657,0.657,0.657,0.657,0.657,0.656,0.656,0.656,0.656,0.656,0.657,0.658,0.658,0.658,0.658,0.658,0.659,0.659,0.659,0.659,0.659,0.66,0.66,0.66,0.66,0.661,0.661,0.662,0.662,0.661,0.661,0.661,0.66,0.66,0.66,0.66,0.66,0.66,0.66,0.66,0.66,0.661,0.662,0,0,0,0,0,0,0,0,0,0,0,0,0,0,0,0,0,0,0,0,0,0,0,0,0,0,0,0,0,0,0.332,0.332,0.332,0.332,0.332,0.332,0.332,0.332,0.332,0.332,0.332,0.332,0.332,0.332,0.332,0.332,0.332,0.332,0.332,0.332,0.332,0.333,0.333,0.333,0.333,0.333,0.333,0.333,0.333,0.333,0.333,0.333,0.333,0.332,0.333,0.332,0.332,0.333,0.332,0.332,0.333,0.333,0.333,0.333,0.333,0.333,0.333,0.334,0.334,0.334,0.334,0.334,0.334,0.334,0.335,0.335,0.335,0.335,0.335,0.335,0.335,0.335,0.335,0.335,0.335,0.335,0.335,0.335,0.335,0.335,0.335,0.335,0.335,0.335,0.335,0.335,0.335,0.335,0.335,0.335,0.336,0.336,0.336,0.336,0.336,0.336,0.336,0.337,0.337,0.337,0.337,0.337,0.337,0.337,0.337,0.337,0.337,0.337,0.337,0.337,0.337,0.338,0.338,0.338,0.338,0.338,0.338,0.338,0.338,0.338,0.338,0.338,0.338,0.338,0.338,0.338,0.338,0.338,0.338,0.338,0.339,0.339,0.339,0.339,0.339,0.339,0.339,0.34,0.34,0.34,0.34,0.34,0.339,0.34,0.34,0.34,0.34,0.34,0.34,0.34,0.34,0.34,0.34,0.34,0.34,0.341,0.341,0.341,0.341,0.342,0.342,0.342,0.342,0.342,0.342,0.342,0.343,0.343,0.343,0.343,0.343,0.343,0.343,0.343,0.343,0.343,0.342,0.342,0.342,0.342,0.342,0.342,0.342,0.342,0.342,0.342,0.342,0.343,0.343,0.343,0.343,0.343,0.343,0.343,0.343,0.343,0.343,0.343,0.344,0.344,0.344,0.344,0.344,0.344,0.344,0.344,0.344,0.344,0.344,0.344,0.344,0.344,0.344,0.344,0.344,0.344,0.344,0.345,0.345,0.345,0.345,0.345,0.345,0.345,0.345,0.345,0.345,0.345,0.346,0.346,0.346,0.346,0.346,0.346,0.346,0.347,0.347,0.347,0.347,0.347,0.347,0.347,0.347,0.348,0.348,0.348,0.348,0.348,0.348,0.348,0.348,0.348,0.348,0.348,0.348,0.348,0.348,0.348,0.349,0.348,0.349,0.348,0.349,0.349,0.349,0.349,0.349,0.349,0.349,0.349,0.349,0.349,0.349,0.349,0.349,0.349,0.349,0.349,0.35,0.35,0.35,0.35,0.35,0.35,0.35,0.35,0.35,0.35,0.35,0.35,0.351,0.351,0.351,0.351,0.351,0.351,0.351,0.351,0.351,0.351,0.352,0.352,0.352,0.352,0.352,0.352,0.352,0.353,0.353,0.353,0.353,0.353,0.353,0.353,0.353,0.353,0.353,0.353,0.353,0,0.353,0.354,0.354,0.354,0.354,0.354,0.354,0.354,0.354,0.354,0.354,0.354,0.355,0.355,0.355,0.355,0.355,0.355,0.355,0.355,0.355,0.355,0.356,0.356,0.356,0.356,0.356,0.356,0.356,0.356,0.356,0.355,0.355,0.355,0.355,0.355,0.355,0.355,0.355,0.356,0.356,0.356,0.356,0.356,0.356,0.357,0.357,0.356,0.357,0.357,0.357,0.356,0.357,0.356,0.356,0.357,0.357,0.357,0.357,0.358,0.358,0.358,0.358,0.359,0.359,0.359,0.359,0.359,0.359,0.359,0.359,0.359,0.358,0.358,0.358,0.358,0.358,0.358,0.358,0.358,0.359,0.359,0.359,0.359,0.359,0.359,0.359,0.359,0.359,0.359,0.359,0.36,0.36,0.36,0.36,0.36,0.36,0.36,0.36,0.361,0.361,0.361,0.361,0.361,0.361,0.361,0.361,0.361,0.361,0.361,0.361,0.361,0.361,0.361,0.361,0.361,0.361,0.361,0.361,0.361,0.361,0.361,0.361,0.361,0.361,0.361,0.361,0.361,0.362,0.362,0.362,0.362,0.362,0.362,0.363,0.363,0.363,0.363,0.364,0.364,0.364,0.364,0.364,0.364,0.364,0.364,0.364,0.364,0.364,0.364,0.364,0.365,0.365,0.365,0.365,0.365,0.365,0.365,0.365,0.365,0.365,0.365,0.365,0.365
0.658,0.656,0.655,0.655,0.655,0.655,0.655,0.655,0.654,0.654,0.654,0.655,0.655,0.655,0.656,0.656,0.656,0.656,0.657,0.657,0.658,0.658,0.658,0.658,0.658,0.658,0.658,0.659,0.659,0.66,0.66,0.66,0.66,0.66,0.66,0.659,0.658,0.658,0.658,0.658,0.659,0.658,0.659,0.66,0.66,0,0,0,0,0,0,0,0,0,0,0,0,0,0,0,0,0,0,0,0,0,0,0,0,0,0,0,0,0,0,0.331,0.331,0.331,0.331,0.331,0.331,0.331,0.331,0.331,0.331,0.331,0.331,0.331,0.331,0.331,0.331,0.331,0.331,0.331,0.331,0.331,0.331,0.332,0.332,0.332,0.332,0.332,0.332,0.332,0.332,0.332,0.332,0.332,0.332,0.332,0.332,0.332,0.332,0.332,0.332,0.331,0.332,0.332,0.332,0.332,0.332,0.333,0.333,0.333,0.333,0.333,0.333,0.334,0.334,0.334,0.334,0.334,0.334,0.334,0.334,0.334,0.334,0.334,0.334,0.334,0.334,0.334,0.334,0.335,0.335,0.335,0.335,0.334,0.334,0.334,0.334,0.334,0.334,0.335,0.335,0.335,0.335,0.335,0.335,0.335,0.335,0.336,0.336,0.336,0.336,0.336,0.336,0.337,0.336,0.336,0.337,0.337,0.337,0.337,0.337,0.337,0.337,0.337,0.337,0.337,0.337,0.337,0.337,0.337,0.337,0.337,0.337,0.337,0.337,0.337,0.337,0.337,0.337,0.337,0.338,0.338,0.338,0.338,0.338,0.338,0.339,0.339,0.339,0.339,0.339,0.339,0.339,0.339,0.339,0.339,0.339,0.339,0.339,0.339,0.339,0.339,0.339,0.339,0.339,0.34,0.34,0.34,0.34,0.34,0.341,0.341,0.341,0.341,0.341,0.341,0.341,0.341,0.342,0.342,0.342,0.342,0.342,0.342,0.342,0.342,0.342,0.342,0.342,0.342,0.341,0.342,0.341,0.341,0.341,0.342,0.342,0.342,0.342,0.342,0.342,0.342,0.342,0.342,0.342,0.342,0.342,0.343,0.343,0.343,0.343,0.343,0.343,0.343,0.343,0.343,0.343,0.343,0.343,0.343,0.343,0.343,0.343,0.343,0.343,0.343,0.343,0.343,0.343,0.344,0.344,0.344,0.344,0.344,0.344,0.344,0.344,0.344,0.344,0.344,0.344,0.345,0.345,0.345,0.345,0.345,0.345,0.346,0.346,0.346,0.346,0.346,0.346,0.346,0.347,0.347,0.347,0.347,0.347,0.347,0.347,0.347,0.347,0.347,0.347,0.347,0.347,0.347,0.347,0.347,0.348,0.347,0.348,0.348,0.348,0.348,0.348,0.348,0.348,0.348,0.348,0.348,0.348,0.348,0.348,0.348,0.348,0.348,0.348,0.348,0.349,0.349,0.349,0.349,0.349,0.349,0.349,0.35,0.35,0.35,0.35,0.35,0.35,0.35,0.35,0.351,0.35,0.351,0.351,0.351,0.351,0.351,0.351,0.351,0.351,0.351,0.351,0.351,0.352,0.352,0.352,0.352,0.352,0.352,0.352,0.352,0.352,0.352,0.352,0.352,0.352,0.352,0.353,0.353,0.353,0.353,0.353,0.353,0.353,0.353,0.353,0.353,0.353,0.354,0.354,0.354,0.354,0.354,0.354,0.354,0.354,0.354,0.355,0.355,0.355,0.355,0.355,0.355,0.355,0.355,0.355,0.355,0.354,0.355,0.354,0.354,0.354,0.354,0.355,0.355,0.355,0.355,0.355,0.355,0.355,0.355,0.355,0.355,0.355,0.355,0.356,0.356,0.356,0.356,0.356,0.356,0.356,0.356,0.356,0.356,0.357,0.357,0.357,0.357,0.358,0.358,0.358,0.358,0.358,0.358,0.358,0.358,0.358,0.357,0.357,0.357,0.357,0.357,0.357,0.357,0.357,0.357,0.357,0.357,0.358,0.358,0.358,0.358,0.358,0.358,0.358,0.358,0.358,0.359,0.359,0.359,0.359,0.359,0.359,0.36,0.36,0.36,0.36,0.36,0.36,0.36,0.36,0.36,0.36,0.36,0.36,0.36,0.36,0.36,0.36,0.36,0.36,0.36,0.36,0.36,0.36,0.36,0.36,0.36,0.36,0.36,0.36,0.361,0.361,0.361,0.361,0.361,0.361,0.361,0.361,0.361,0.362,0.362,0.362,0.362,0.362,0.363,0.363,0.363,0.363,0.363,0.363,0.363,0.364,0.364,0.364,0.364,0.364,0.364,0.364,0.364,0.364,0.364,0.364,0.364,0.364,0.364,0.364,0.364,0.364,0.364
0.656,0.654,0.654,0.653,0.653,0.653,0.653,0.653,0.653,0.653,0.653,0.653,0.653,0.653,0.654,0.654,0.655,0.655,0.655,0.655,0.656,0.656,0.656,0.656,0.657,0.657,0.658,0.658,0.658,0.658,0.658,0.658,0.658,0.658,0.658,0.657,0.657,0.657,0.657,0.657,0.658,0.658,0.658,0.658,0.659,0,0,0,0,0,0,0,0,0,0,0,0,0,0,0,0,0,0,0,0,0,0,0,0,0,0,0,0,0,0,0.33,0.33,0.33,0.33,0.33,0.33,0.33,0.33,0.33,0.33,0.33,0.33,0.33,0.33,0.33,0.33,0.33,0.33,0.33,0.33,0.33,0.331,0.331,0.331,0.331,0.331,0.331,0.331,0.331,0.331,0.331,0.331,0.331,0.331,0.331,0.331,0.331,0.331,0.331,0.331,0.331,0.331,0.331,0.331,0.331,0.332,0.332,0.332,0.332,0.333,0.333,0.333,0.333,0.333,0.333,0.333,0.333,0.333,0.333,0.333,0.333,0.333,0.333,0.333,0.333,0.334,0.334,0.334,0.334,0.334,0.334,0.334,0.334,0.334,0.334,0.334,0.334,0.334,0.334,0.334,0.334,0.334,0.334,0.334,0.335,0.335,0.335,0.335,0.335,0.335,0.335,0.336,0.336,0.336,0.336,0.336,0.336,0.336,0.336,0.336,0.336,0.336,0.336,0.336,0.336,0.336,0.336,0.336,0.337,0.337,0.337,0.337,0.337,0.337,0.337,0.337,0.337,0.337,0.337,0.337,0.337,0.337,0.337,0.337,0.338,0.338,0.338,0.338,0.338,0.338,0.338,0.338,0.338,0.338,0.338,0.338,0.338,0.338,0.338,0.338,0.338,0.338,0.339,0.339,0.339,0.339,0.339,0.339,0.34,0.34,0.34,0.34,0.34,0.34,0.34,0.34,0.34,0.34,0.34,0.341,0.341,0.341,0.341,0.341,0.341,0.341,0.341,0.341,0.341,0.341,0.341,0.341,0.341,0.341,0.341,0.341,0.341,0.341,0.341,0.341,0.341,0.341,0.342,0.342,0.342,0.342,0.342,0.342,0.342,0.342,0.342,0.342,0.342,0.342,0.342,0.342,0.342,0.342,0.342,0.342,0.342,0.342,0.342,0.342,0.343,0.343,0.343,0.343,0.343,0.343,0.343,0.343,0.343,0.343,0.343,0.344,0.344,0.343,0.343,0.343,0.344,0.344,0.344,0.344,0.344,0.344,0.345,0.345,0.345,0.345,0.345,0.345,0.345,0.346,0.346,0.346,0.346,0.346,0.346,0.346,0.346,0.346,0.346,0.346,0.346,0.346,0.346,0.346,0.346,0.347,0.347,0.347,0.347,0.347,0.347,0.347,0.347,0.347,0.347,0.347,0.347,0.347,0.347,0.347,0.347,0.347,0.348,0.347,0.348,0.348,0.348,0.348,0.349,0.349,0.349,0.349,0.349,0.349,0.349,0.349,0.349,0.349,0.349,0.35,0.35,0.35,0.35,0.35,0.35,0.35,0.35,0.35,0.35,0.35,0.35,0.35,0.351,0.351,0.351,0.351,0.351,0.351,0.351,0.351,0.351,0.351,0.351,0.351,0.351,0.351,0.351,0.351,0.351,0.352,0.352,0.352,0.352,0.352,0.352,0.352,0.352,0.353,0.353,0.353,0.353,0.353,0.353,0.353,0.353,0.353,0.354,0.354,0.354,0.354,0.354,0.354,0.354,0.354,0.354,0.354,0.354,0.353,0.353,0.353,0.353,0.353,0.353,0.354,0.354,0.354,0.354,0.354,0.354,0.354,0.354,0.354,0.355,0.355,0.355,0.355,0.355,0.355,0.355,0.355,0.355,0.355,0.355,0.355,0.356,0.356,0.356,0.356,0.356,0.356,0.357,0.357,0.357,0.357,0.357,0.357,0.357,0.357,0.356,0.356,0.356,0.356,0.356,0.356,0.356,0.356,0.357,0.356,0.357,0.357,0.357,0.357,0.357,0.357,0.357,0.357,0.357,0.357,0.358,0.358,0.358,0.358,0.358,0.358,0.359,0.359,0.359,0.359,0.359,0.359,0.359,0.359,0.359,0.359,0.359,0.359,0.359,0.358,0.358,0.358,0.359,0.359,0.359,0.359,0.359,0.359,0.359,0.359,0.359,0.359,0.359,0.359,0.36,0.36,0.36,0.36,0.36,0.36,0.36,0.36,0.36,0.361,0.361,0.361,0.361,0.362,0.362,0.362,0.362,0.362,0.362,0.362,0.362,0.363,0.363,0.363,0.363,0.363,0.363,0.363,0.363,0.363,0.363,0.363,0.363,0.363,0.363,0.363,0.363,0.363,0.363
0.655,0.653,0.652,0.651,0.651,0.651,0.651,0.651,0.651,0.651,0.651,0.651,0.652,0.652,0.652,0.653,0.653,0.654,0.654,0.654,0.655,0.655,0.655,0.655,0.655,0.655,0.655,0.655,0.656,0.656,0.656,0.657,0.656,0.656,0.656,0.655,0.655,0.655,0.655,0.656,0.656,0.656,0.657,0.657,0,0,0,0,0,0,0,0,0,0,0,0,0,0,0,0,0,0,0,0,0,0,0,0,0,0,0,0,0,0,0.329,0.329,0.33,0.329,0.329,0.329,0.329,0.329,0.329,0.329,0.329,0.329,0.329,0.329,0.329,0.329,0.329,0.329,0.329,0.329,0.329,0.33,0.33,0.33,0.33,0.33,0.33,0.33,0.33,0.331,0.331,0.331,0.33,0.33,0.33,0.33,0.33,0.33,0.33,0.33,0.33,0.33,0.33,0.33,0.331,0.331,0.331,0.331,0.331,0.331,0.332,0.332,0.332,0.332,0.332,0.332,0.332,0.332,0.332,0.332,0.332,0.333,0.333,0.333,0.333,0.333,0.333,0.333,0.333,0.333,0.333,0.333,0.333,0.333,0.333,0.333,0.333,0.333,0.333,0.333,0.333,0.333,0.333,0.334,0.334,0.334,0.334,0.334,0.334,0.334,0.335,0.335,0.335,0.335,0.335,0.335,0.335,0.335,0.335,0.335,0.335,0.335,0.335,0.335,0.335,0.335,0.335,0.335,0.335,0.336,0.336,0.336,0.336,0.336,0.336,0.336,0.336,0.336,0.336,0.336,0.336,0.337,0.337,0.337,0.337,0.337,0.337,0.337,0.337,0.337,0.337,0.337,0.337,0.337,0.337,0.337,0.337,0.337,0.337,0.337,0.337,0.338,0.338,0.338,0.338,0.338,0.338,0.339,0.339,0.339,0.339,0.339,0.339,0.339,0.339,0.339,0.339,0.339,0.339,0.339,0.34,0.34,0.34,0.34,0.34,0.34,0.34,0.34,0.34,0.34,0.34,0.34,0.34,0.34,0.34,0.34,0.34,0.34,0.34,0.34,0.341,0.341,0.341,0.341,0.341,0.341,0.341,0.341,0.341,0.342,0.342,0.341,0.341,0.341,0.342,0.342,0.342,0.341,0.341,0.341,0.341,0.341,0.341,0.342,0.342,0.342,0.342,0.342,0.342,0.342,0.342,0.343,0.343,0.343,0.343,0.343,0.343,0.343,0.343,0.343,0.343,0.343,0.343,0.343,0.343,0.343,0.343,0.344,0.344,0.344,0.344,0.344,0.344,0.345,0.345,0.345,0.345,0.345,0.345,0.345,0.345,0.345,0.345,0.345,0.345,0.345,0.345,0.345,0.345,0.346,0.346,0.346,0.346,0.346,0.346,0.346,0.346,0.346,0.346,0.346,0.346,0.346,0.346,0.346,0.346,0.346,0.347,0.346,0.347,0.347,0.347,0.347,0.348,0.348,0.348,0.348,0.348,0.348,0.348,0.348,0.348,0.349,0.348,0.349,0.349,0.349,0.349,0.349,0.349,0.349,0.349,0.349,0.349,0.349,0.349,0.349,0.349,0.35,0.35,0.35,0.35,0.35,0.35,0.35,0.35,0.35,0.35,0.35,0.35,0.35,0.35,0.35,0.35,0.351,0.351,0.351,0.351,0.351,0.351,0.351,0.351,0.352,0.352,0.352,0.352,0.352,0.352,0.352,0.352,0.352,0.352,0.353,0.353,0.353,0.353,0.353,0.353,0.353,0.353,0.353,0.352,0.353,0.352,0.352,0.352,0.352,0.352,0.352,0.353,0.353,0.353,0.353,0.353,0.353,0.353,0.353,0.354,0.354,0.354,0.354,0.354,0.354,0.354,0.354,0.354,0.354,0.354,0.354,0.355,0.355,0.355,0.355,0.355,0.355,0.355,0.356,0.356,0.356,0.356,0.356,0.356,0.356,0.356,0.355,0.355,0.355,0.355,0.356,0.356,0.356,0.356,0.356,0.356,0.356,0.356,0.356,0.356,0.356,0.356,0.356,0.356,0.356,0.356,0.357,0.357,0.357,0.357,0.357,0.357,0.358,0.358,0.358,0.358,0.358,0.358,0.358,0.358,0.358,0.358,0.358,0.358,0.357,0.357,0.357,0.357,0.358,0.358,0.358,0.358,0.358,0.358,0.358,0.358,0.358,0.358,0.358,0.358,0.359,0.359,0.359,0.359,0.359,0.359,0.359,0.359,0.359,0.36,0.36,0.36,0.36,0.36,0.361,0.361,0.361,0.361,0.361,0.361,0.361,0.361,0.362,0.362,0.362,0.362,0.362,0.362,0.362,0.362,0.361,0.361,0.361,0.361,0.361,0.361,0.361,0.362,0.362
0.652,0.651,0.65,0.649,0.649,0.649,0.649,0.649,0.648,0.649,0.649,0.649,0.649,0.65,0.651,0.651,0.651,0.652,0.653,0.653,0.653,0.653,0.653,0.654,0.654,0.654,0.654,0.654,0.655,0.655,0.655,0.655,0.655,0.654,0.654,0.654,0.654,0.654,0.654,0.654,0.655,0,0,0,0,0,0,0,0,0,0,0,0,0,0,0,0,0,0,0,0,0,0,0,0,0,0,0,0,0,0,0,0,0,0.329,0.329,0.329,0.329,0.329,0.329,0.329,0.329,0.328,0.328,0.328,0.328,0.328,0.328,0.328,0.328,0.328,0.328,0.329,0.329,0.329,0.329,0.329,0.329,0.329,0.329,0.329,0.329,0.33,0.33,0.33,0.33,0.33,0.329,0.329,0.329,0.329,0.329,0.329,0.329,0.329,0.329,0.329,0.329,0.33,0.33,0.33,0.33,0.331,0.331,0.331,0.331,0.331,0.331,0.331,0.331,0.331,0.331,0.332,0.332,0.332,0.332,0.332,0.332,0.332,0.332,0.332,0.332,0.332,0.332,0.333,0.332,0.332,0.332,0.332,0.332,0.332,0.332,0.332,0.332,0.333,0.333,0.333,0.333,0.333,0.333,0.333,0.333,0.334,0.334,0.334,0.334,0.334,0.334,0.334,0.334,0.334,0.334,0.334,0.334,0.334,0.334,0.334,0.334,0.334,0.334,0.335,0.334,0.335,0.335,0.335,0.335,0.335,0.335,0.335,0.335,0.335,0.335,0.335,0.336,0.336,0.336,0.336,0.336,0.336,0.336,0.336,0.336,0.336,0.336,0.336,0.336,0.336,0.336,0.337,0.337,0.337,0.337,0.337,0.337,0.337,0.337,0.337,0.337,0.337,0.338,0.338,0.338,0.338,0.338,0.338,0.338,0.338,0.339,0.339,0.338,0.338,0.338,0.338,0.339,0.339,0.339,0.339,0.339,0.339,0.339,0.339,0.339,0.339,0.339,0.339,0.339,0.339,0.339,0.339,0.339,0.339,0.339,0.339,0.339,0.34,0.34,0.34,0.34,0.34,0.34,0.34,0.34,0.34,0.341,0.341,0.341,0.34,0.34,0.34,0.34,0.34,0.34,0.34,0.341,0.341,0.341,0.341,0.341,0.341,0.341,0.341,0.341,0.341,0.342,0.342,0.342,0.342,0.342,0.342,0.342,0.342,0.342,0.342,0.342,0.342,0.342,0.342,0.342,0.343,0.343,0.343,0.343,0.343,0.343,0.343,0.343,0.343,0.344,0.344,0.344,0.344,0.344,0.344,0.344,0.344,0.344,0.344,0.344,0.344,0.344,0.344,0.344,0.345,0.345,0.345,0.345,0.345,0.345,0.345,0.345,0.345,0.345,0.345,0.345,0.345,0.345,0.345,0.345,0.345,0.346,0.346,0.346,0.346,0.346,0.347,0.347,0.347,0.347,0.347,0.347,0.347,0.347,0.347,0.348,0.348,0.348,0.348,0.348,0.348,0.348,0.348,0.348,0.348,0.348,0.348,0.348,0.349,0.348,0.349,0.349,0.349,0.349,0.349,0.349,0.349,0.349,0.349,0.349,0.349,0.349,0.349,0.349,0.349,0.349,0.349,0.35,0.35,0.35,0.35,0.35,0.35,0.35,0.35,0.35,0.351,0.351,0.351,0.351,0.351,0.351,0.351,0.352,0.352,0.352,0.352,0.352,0.352,0.352,0.352,0.352,0.352,0.352,0.352,0.351,0.351,0.351,0.351,0.351,0.351,0.351,0.351,0.351,0.352,0.352,0.352,0.352,0.352,0.352,0.352,0.352,0.353,0.353,0.353,0.353,0.353,0.353,0.353,0.353,0.354,0.354,0.354,0.354,0.354,0.354,0.354,0.354,0.354,0.354,0.355,0.355,0.355,0.355,0.355,0.355,0.355,0.355,0.355,0.355,0.355,0.355,0.355,0.355,0.355,0.355,0.355,0.355,0.355,0.355,0.355,0.355,0.355,0.355,0.355,0.355,0.355,0.355,0.356,0.356,0.356,0.356,0.356,0.356,0.357,0.357,0.357,0.357,0.357,0.357,0.357,0.357,0.357,0.357,0.357,0.357,0.357,0.357,0.356,0.356,0.357,0.357,0.357,0.357,0.357,0.357,0.357,0.357,0.357,0.357,0.357,0.357,0.357,0.358,0.358,0.358,0.358,0.358,0.358,0.358,0.358,0.358,0.358,0.358,0.359,0.359,0.359,0.36,0.36,0.36,0.36,0.36,0.36,0.36,0.361,0.361,0.361,0.361,0.361,0.361,0.361,0.361,0.361,0.36,0.36,0.36,0.36,0.36,0.361,0.361,0.361,0.361
0.651,0.649,0.647,0.647,0.646,0.646,0.646,0.646,0.646,0.646,0.646,0.646,0.647,0.648,0.649,0.649,0.649,0.651,0.651,0.651,0.652,0.652,0.652,0.653,0.653,0.653,0.653,0.653,0.653,0.653,0.653,0.653,0.653,0.653,0.652,0.651,0.652,0.651,0.652,0.653,0.653,0,0,0,0,0,0,0,0,0,0,0,0,0,0,0,0,0,0,0,0,0,0,0,0,0,0,0,0,0,0,0,0,0,0.329,0.329,0.328,0.328,0.328,0.328,0.328,0.328,0.328,0.328,0.328,0.328,0.328,0.328,0.328,0.328,0.328,0.328,0.328,0.328,0.328,0.328,0.328,0.328,0.328,0.328,0.329,0.329,0.329,0.329,0.329,0.329,0.329,0.329,0.329,0.329,0.329,0.328,0.329,0.329,0.329,0.329,0.329,0.329,0.329,0.329,0.329,0.33,0.33,0.33,0.33,0.33,0.331,0.331,0.331,0.331,0.331,0.331,0.331,0.331,0.331,0.331,0.331,0.331,0.331,0.331,0.331,0.332,0.332,0.332,0.332,0.332,0.331,0.331,0.331,0.331,0.332,0.331,0.332,0.332,0.332,0.332,0.332,0.332,0.332,0.332,0.333,0.333,0.333,0.333,0.333,0.333,0.333,0.333,0.333,0.333,0.333,0.333,0.333,0.333,0.333,0.333,0.333,0.333,0.333,0.333,0.333,0.333,0.334,0.334,0.334,0.334,0.334,0.334,0.334,0.334,0.335,0.335,0.335,0.335,0.335,0.335,0.335,0.335,0.335,0.335,0.336,0.336,0.336,0.336,0.336,0.336,0.336,0.336,0.336,0.336,0.336,0.336,0.336,0.336,0.336,0.336,0.336,0.336,0.337,0.337,0.337,0.337,0.337,0.337,0.337,0.338,0.338,0.338,0.338,0.337,0.337,0.337,0.337,0.338,0.338,0.338,0.338,0.338,0.338,0.338,0.338,0.339,0.338,0.338,0.338,0.338,0.338,0.338,0.338,0.338,0.339,0.339,0.339,0.339,0.339,0.339,0.339,0.339,0.339,0.339,0.34,0.34,0.34,0.34,0.34,0.34,0.34,0.34,0.339,0.339,0.339,0.339,0.339,0.34,0.34,0.34,0.34,0.34,0.34,0.34,0.34,0.34,0.34,0.341,0.341,0.341,0.341,0.341,0.341,0.341,0.341,0.341,0.341,0.341,0.341,0.341,0.342,0.342,0.342,0.342,0.342,0.342,0.342,0.342,0.343,0.343,0.343,0.343,0.343,0.343,0.343,0.343,0.343,0.343,0.343,0.343,0.343,0.343,0.343,0.343,0.343,0.344,0.344,0.344,0.344,0.344,0.344,0.344,0.344,0.344,0.344,0.345,0.345,0.345,0.344,0.345,0.345,0.345,0.345,0.345,0.345,0.345,0.345,0.345,0.345,0.346,0.346,0.346,0.346,0.346,0.346,0.346,0.346,0.347,0.347,0.347,0.347,0.347,0.347,0.347,0.347,0.347,0.348,0.348,0.348,0.348,0.348,0.348,0.348,0.348,0.348,0.348,0.348,0.348,0.348,0.348,0.348,0.348,0.348,0.348,0.348,0.348,0.348,0.349,0.349,0.349,0.349,0.349,0.349,0.349,0.349,0.349,0.349,0.35,0.35,0.35,0.35,0.35,0.35,0.35,0.35,0.351,0.351,0.351,0.351,0.351,0.351,0.351,0.351,0.351,0.351,0.351,0.35,0.35,0.35,0.35,0.35,0.35,0.35,0.35,0.35,0.35,0.351,0.351,0.351,0.351,0.351,0.351,0.351,0.351,0.352,0.352,0.352,0.352,0.352,0.352,0.352,0.353,0.353,0.353,0.353,0.353,0.353,0.354,0.353,0.353,0.353,0.353,0.354,0.354,0.354,0.354,0.354,0.354,0.354,0.354,0.354,0.354,0.354,0.354,0.354,0.354,0.354,0.354,0.354,0.354,0.354,0.354,0.354,0.354,0.354,0.354,0.354,0.354,0.354,0.354,0.355,0.355,0.355,0.355,0.355,0.356,0.356,0.356,0.356,0.356,0.356,0.356,0.356,0.356,0.356,0.356,0.356,0.356,0.356,0.356,0.356,0.356,0.356,0.356,0.356,0.356,0.356,0.356,0.356,0.356,0.356,0.356,0.356,0.357,0.357,0.357,0.357,0.357,0.357,0.357,0.357,0.357,0.357,0.357,0.357,0.357,0.358,0.358,0.358,0.358,0.358,0.358,0.359,0.359,0.359,0.359,0.359,0.359,0.36,0.36,0.36,0.36,0.36,0.36,0.359,0.359,0.359,0.359,0.359,0.359,0.36,0.36,0.36,0.36
0.648,0.646,0.645,0.644,0.644,0.644,0.644,0.644,0.644,0.644,0.644,0.645,0.646,0.646,0.646,0.647,0.648,0.649,0.649,0.65,0.651,0.651,0.651,0.651,0.651,0.651,0.651,0.651,0.652,0.652,0.651,0.651,0.651,0.651,0.651,0.65,0.651,0.651,0.651,0.651,0.651,0.651,0,0,0,0,0,0,0,0,0,0,0,0,0,0,0,0,0,0,0,0,0,0,0,0,0,0,0,0,0,0,0,0.328,0.328,0.328,0.328,0.328,0.328,0.328,0.327,0.327,0.327,0.327,0.327,0.327,0.327,0.327,0.327,0.327,0.327,0.327,0.327,0.327,0.327,0.327,0.327,0.327,0.327,0.328,0.328,0.328,0.328,0.328,0.328,0.328,0.328,0.328,0.328,0.328,0.328,0.328,0.328,0.328,0.328,0.328,0.328,0.328,0.328,0.329,0.329,0.329,0.329,0.329,0.329,0.33,0.33,0.33,0.33,0.33,0.33,0.33,0.33,0.33,0.33,0.33,0.33,0.33,0.33,0.331,0.331,0.331,0.331,0.331,0.331,0.331,0.331,0.331,0.331,0.331,0.331,0.331,0.331,0.331,0.331,0.331,0.331,0.332,0.332,0.332,0.332,0.332,0.332,0.332,0.332,0.332,0.333,0.333,0.333,0.333,0.333,0.333,0.333,0.333,0.333,0.332,0.332,0.332,0.332,0.333,0.333,0.333,0.333,0.333,0.333,0.333,0.333,0.333,0.333,0.334,0.334,0.334,0.334,0.334,0.334,0.335,0.335,0.335,0.335,0.335,0.335,0.335,0.335,0.335,0.335,0.335,0.335,0.335,0.335,0.335,0.335,0.335,0.335,0.335,0.335,0.335,0.335,0.336,0.336,0.336,0.336,0.336,0.337,0.337,0.337,0.337,0.337,0.337,0.337,0.337,0.337,0.337,0.337,0.337,0.337,0.337,0.337,0.337,0.337,0.337,0.337,0.337,0.337,0.337,0.337,0.337,0.337,0.337,0.338,0.338,0.338,0.338,0.338,0.338,0.338,0.338,0.339,0.339,0.339,0.339,0.339,0.339,0.339,0.339,0.339,0.339,0.339,0.339,0.339,0.339,0.339,0.339,0.339,0.339,0.339,0.339,0.339,0.339,0.339,0.339,0.339,0.34,0.34,0.34,0.34,0.34,0.34,0.34,0.34,0.34,0.34,0.34,0.34,0.34,0.34,0.341,0.341,0.341,0.341,0.341,0.341,0.341,0.341,0.342,0.342,0.342,0.342,0.342,0.342,0.342,0.342,0.342,0.343,0.343,0.343,0.343,0.342,0.343,0.343,0.343,0.343,0.343,0.343,0.343,0.343,0.343,0.343,0.343,0.343,0.343,0.343,0.344,0.344,0.344,0.344,0.344,0.344,0.344,0.344,0.344,0.344,0.344,0.344,0.344,0.344,0.345,0.345,0.345,0.345,0.345,0.345,0.345,0.345,0.346,0.346,0.346,0.346,0.346,0.346,0.346,0.346,0.347,0.347,0.347,0.347,0.347,0.347,0.347,0.347,0.347,0.347,0.347,0.347,0.347,0.347,0.347,0.347,0.347,0.347,0.347,0.347,0.347,0.347,0.348,0.348,0.348,0.348,0.348,0.348,0.348,0.348,0.349,0.349,0.349,0.349,0.349,0.349,0.349,0.349,0.349,0.35,0.35,0.35,0.35,0.35,0.35,0.35,0.35,0.35,0.35,0.35,0.349,0.349,0.349,0.349,0.349,0.349,0.349,0.349,0.349,0.349,0.35,0.35,0.35,0.35,0.35,0.35,0.35,0.35,0.35,0.351,0.351,0.351,0.351,0.351,0.351,0.352,0.352,0.352,0.352,0.352,0.353,0.353,0.353,0.353,0.353,0.353,0.353,0.353,0.353,0.353,0.353,0.353,0.353,0.353,0.353,0.353,0.353,0.353,0.353,0.353,0.353,0.353,0.353,0.353,0.353,0.353,0.353,0.353,0.353,0.354,0.354,0.353,0.354,0.354,0.354,0.354,0.354,0.354,0.354,0.354,0.355,0.355,0.355,0.355,0.355,0.355,0.355,0.355,0.355,0.355,0.355,0.355,0.355,0.355,0.355,0.355,0.355,0.355,0.355,0.355,0.355,0.355,0.355,0.355,0.356,0.356,0.356,0.356,0.356,0.356,0.356,0.356,0.356,0.356,0.356,0.356,0.356,0.356,0.356,0.356,0.357,0.357,0.357,0.357,0.357,0.357,0.357,0.357,0.358,0.358,0.358,0.358,0.358,0.358,0.358,0.358,0.358,0.358,0.358,0.358,0.358,0.358,0.358,0.358,0.358,0.359,0.358,0.358,0.359
0.645,0.644,0.643,0.642,0.642,0.642,0.642,0.642,0.642,0.642,0.643,0.643,0.644,0.644,0.644,0.645,0.646,0.646,0.647,0.648,0.649,0.649,0.649,0.649,0.65,0.65,0.65,0.65,0.65,0.65,0.65,0.65,0.65,0.649,0.649,0.648,0.649,0.648,0.648,0.648,0,0,0,0,0,0,0,0,0,0,0,0,0,0,0,0,0,0,0,0,0,0,0,0,0,0,0,0,0,0,0,0.328,0.328,0.328,0.328,0.327,0.327,0.327,0.327,0.327,0.327,0.326,0.326,0.326,0.326,0.326,0.326,0.326,0.326,0.326,0.326,0.326,0.326,0.326,0.326,0.326,0.327,0.327,0.327,0.327,0.327,0.327,0.327,0.327,0.327,0.327,0.327,0.327,0.327,0.327,0.327,0.327,0.327,0.327,0.327,0.327,0.327,0.328,0.328,0.328,0.328,0.328,0.328,0.329,0.329,0.329,0.329,0.329,0.329,0.329,0.329,0.329,0.329,0.329,0.329,0.329,0.33,0.33,0.33,0.33,0.33,0.33,0.33,0.33,0.33,0.33,0.33,0.33,0.33,0.33,0.33,0.33,0.33,0.33,0.33,0.331,0.331,0.331,0.331,0.331,0.331,0.331,0.331,0.331,0.331,0.331,0.332,0.332,0.332,0.332,0.332,0.332,0.332,0.332,0.332,0.331,0.331,0.331,0.331,0.332,0.332,0.332,0.332,0.332,0.332,0.332,0.333,0.333,0.333,0.333,0.333,0.333,0.333,0.333,0.334,0.334,0.334,0.334,0.334,0.334,0.334,0.334,0.334,0.334,0.334,0.334,0.334,0.334,0.334,0.334,0.334,0.334,0.334,0.334,0.334,0.335,0.335,0.335,0.335,0.335,0.335,0.335,0.335,0.336,0.336,0.336,0.336,0.336,0.336,0.336,0.336,0.335,0.335,0.336,0.336,0.336,0.336,0.336,0.336,0.336,0.336,0.337,0.337,0.337,0.337,0.336,0.337,0.337,0.337,0.337,0.337,0.337,0.337,0.337,0.337,0.337,0.337,0.337,0.337,0.338,0.338,0.338,0.338,0.338,0.338,0.338,0.338,0.338,0.338,0.338,0.338,0.338,0.338,0.338,0.338,0.338,0.338,0.339,0.339,0.339,0.339,0.339,0.339,0.339,0.339,0.339,0.339,0.339,0.339,0.339,0.339,0.34,0.34,0.34,0.34,0.34,0.34,0.34,0.34,0.34,0.34,0.34,0.341,0.341,0.341,0.341,0.341,0.341,0.341,0.342,0.342,0.342,0.342,0.342,0.342,0.342,0.342,0.342,0.342,0.342,0.342,0.342,0.342,0.342,0.342,0.342,0.343,0.343,0.343,0.343,0.343,0.343,0.343,0.343,0.343,0.343,0.343,0.343,0.343,0.343,0.343,0.343,0.343,0.343,0.343,0.344,0.344,0.344,0.344,0.344,0.344,0.344,0.344,0.345,0.345,0.345,0.345,0.345,0.345,0.345,0.345,0.346,0.346,0.346,0.346,0.346,0.346,0.346,0.346,0.346,0.346,0.346,0.346,0.346,0.346,0.346,0.346,0.346,0.346,0.346,0.346,0.346,0.347,0.347,0.347,0.347,0.347,0.347,0.347,0.347,0.347,0.347,0.348,0.348,0.348,0.348,0.348,0.348,0.348,0.348,0.348,0.349,0.349,0.349,0.349,0.349,0.349,0.349,0.349,0.349,0.349,0.349,0.348,0.348,0.348,0.348,0.348,0.348,0.348,0.348,0.348,0.349,0.349,0.349,0.349,0.349,0.349,0.349,0.349,0.35,0.35,0.35,0.35,0.35,0.35,0.351,0.351,0.351,0.351,0.351,0.352,0.352,0.352,0.352,0.352,0.352,0.352,0.352,0.352,0.352,0.352,0.352,0.352,0.352,0.352,0.352,0.352,0.352,0.352,0.353,0.353,0.353,0.353,0.353,0.353,0.353,0.353,0.353,0.353,0.353,0.353,0.353,0.353,0.353,0.353,0.353,0.353,0.353,0.353,0.353,0.353,0.354,0.354,0.354,0.354,0.354,0.354,0.354,0.354,0.354,0.354,0.354,0.354,0.354,0.354,0.354,0.354,0.354,0.354,0.354,0.354,0.354,0.354,0.354,0.354,0.355,0.355,0.355,0.355,0.355,0.355,0.355,0.355,0.355,0.355,0.355,0.355,0.355,0.355,0.356,0.356,0.356,0.356,0.356,0.356,0.356,0.356,0.356,0.356,0.356,0.357,0.357,0.357,0.357,0.357,0.357,0.357,0.357,0.357,0.357,0.357,0.357,0.357,0.357,0.357,0.357,0.358,0.357,0.358,0.358
0.642,0.642,0.642,0.641,0.64,0.64,0.64,0.64,0.64,0.641,0.641,0.642,0.642,0.642,0.643,0.643,0.644,0.644,0.645,0.646,0.646,0.647,0.647,0.648,0.649,0.649,0.649,0.649,0.649,0.649,0.648,0.648,0.648,0.647,0.646,0.646,0.646,0.646,0.646,0.645,0.644,0,0,0,0,0,0,0,0,0,0,0,0,0,0,0,0,0,0,0,0,0,0,0,0,0,0,0,0,0,0,0,0.327,0.327,0.327,0.327,0.327,0.327,0.326,0.326,0.326,0.326,0.326,0.325,0.325,0.325,0.325,0.325,0.325,0.326,0.326,0.326,0.326,0.326,0.326,0.326,0.326,0.326,0.326,0.326,0.326,0.326,0.326,0.327,0.327,0.327,0.327,0.327,0.327,0.327,0.327,0.327,0.327,0.327,0.327,0.327,0.327,0.327,0.327,0.327,0.327,0.327,0.328,0.328,0.328,0.328,0.328,0.328,0.328,0.328,0.328,0.328,0.328,0.328,0.329,0.329,0.329,0.329,0.329,0.329,0.329,0.329,0.329,0.329,0.329,0.329,0.329,0.329,0.329,0.329,0.329,0.329,0.329,0.329,0.33,0.33,0.33,0.33,0.33,0.33,0.33,0.33,0.331,0.331,0.331,0.331,0.331,0.331,0.331,0.331,0.331,0.331,0.331,0.331,0.331,0.331,0.331,0.331,0.331,0.331,0.331,0.331,0.331,0.331,0.331,0.331,0.332,0.332,0.332,0.332,0.332,0.332,0.333,0.333,0.333,0.333,0.333,0.333,0.333,0.333,0.333,0.333,0.333,0.333,0.333,0.333,0.333,0.333,0.333,0.333,0.333,0.333,0.333,0.333,0.333,0.334,0.334,0.334,0.334,0.334,0.334,0,0.335,0.335,0.335,0.335,0.335,0.335,0.335,0.335,0.335,0.335,0.334,0.335,0.335,0.335,0.335,0.335,0.335,0.335,0.335,0.336,0.336,0.336,0.336,0.336,0.336,0.336,0.336,0.336,0.336,0.336,0.336,0.336,0.336,0.337,0.337,0.336,0.337,0.337,0.337,0.337,0.337,0.337,0.337,0.337,0.337,0.337,0.337,0.337,0.337,0.337,0.337,0.338,0.338,0.338,0.338,0.338,0.338,0.338,0.338,0.338,0.338,0.338,0.338,0.338,0.338,0.339,0.339,0.339,0.339,0.339,0.339,0.339,0.339,0.339,0.339,0.339,0.339,0.339,0.339,0.34,0.34,0.34,0.34,0.34,0.34,0.34,0.34,0.341,0.341,0.341,0.341,0.341,0.341,0.341,0.341,0.341,0.341,0.341,0.341,0.341,0.341,0.341,0.341,0.342,0.342,0.342,0.342,0.342,0.342,0.342,0.342,0.342,0.342,0.342,0.342,0.342,0.342,0.342,0.342,0.342,0.342,0.343,0.343,0.343,0.343,0.343,0.343,0.343,0.343,0.343,0.344,0.344,0.344,0.344,0.344,0.344,0.344,0.344,0.345,0.345,0.345,0.345,0.345,0.345,0.345,0.345,0.345,0.345,0.345,0.345,0.345,0.345,0.345,0.345,0.345,0.345,0.345,0.345,0.345,0.345,0.345,0.346,0.346,0.346,0.346,0.346,0.346,0.346,0.346,0.347,0.347,0.347,0.347,0.347,0.347,0.347,0,0.347,0.347,0.348,0.348,0.348,0.348,0.348,0.348,0.348,0.348,0.348,0.348,0.348,0.348,0.347,0.347,0.347,0.347,0.347,0.347,0.348,0.348,0.348,0.348,0.348,0.348,0.348,0.348,0.348,0.349,0.349,0.349,0.349,0.349,0.349,0.349,0.35,0.35,0.35,0.35,0.351,0.351,0.351,0.351,0.351,0.351,0.351,0.351,0.351,0.351,0.351,0.351,0.351,0.351,0.351,0.351,0.351,0.351,0.351,0.352,0.352,0.352,0.352,0.352,0.352,0.352,0.352,0.352,0.352,0.352,0.352,0.352,0.352,0.352,0.352,0.352,0.352,0.352,0.352,0.352,0.352,0.352,0.352,0.353,0.353,0.353,0.353,0.353,0.353,0.353,0.353,0.353,0.353,0.353,0.353,0.353,0.353,0.353,0.353,0.353,0.353,0.353,0.353,0.353,0.353,0.354,0.354,0.354,0.354,0.354,0.354,0.354,0.354,0.354,0.354,0.354,0.354,0.354,0.354,0.354,0.355,0.355,0.355,0.355,0.355,0.355,0.355,0.355,0.355,0.355,0.355,0.356,0.356,0.356,0.356,0.356,0.356,0.356,0.356,0.356,0.356,0.357,0.357,0.357,0.357,0.357,0.357,0.357,0.357,0.357,0.357
0.64,0.64,0.64,0.64,0.639,0.639,0.639,0.639,0.639,0.64,0.64,0.64,0.64,0.641,0.641,0.642,0.642,0.643,0.644,0.644,0.644,0.645,0.646,0.646,0.646,0.647,0.647,0.647,0.647,0.647,0.646,0.646,0.646,0.645,0.644,0.644,0.644,0.643,0.643,0.642,0,0,0,0,0,0,0,0,0,0,0,0,0,0,0,0,0,0,0,0,0,0,0,0,0,0,0,0,0,0,0,0.327,0.327,0.327,0.327,0.327,0.326,0.326,0.326,0.325,0.325,0.325,0.325,0.325,0.325,0.325,0.325,0.325,0.325,0.325,0.325,0.325,0.325,0.325,0.325,0.325,0.325,0.325,0.325,0.325,0.325,0.326,0.326,0.326,0.326,0.326,0.326,0.326,0.326,0.326,0.326,0.326,0.326,0.326,0.326,0.326,0.326,0.326,0.326,0.326,0.326,0.327,0.327,0.327,0.327,0.327,0.327,0.327,0.327,0.328,0.328,0.327,0.328,0.328,0.328,0.328,0.328,0.328,0.328,0.328,0.328,0.328,0.328,0.328,0.328,0.328,0.328,0.328,0.328,0.328,0.328,0.329,0.329,0.329,0.329,0.329,0.329,0.329,0.329,0.329,0.329,0.33,0.33,0.33,0.33,0.33,0.33,0.33,0.33,0.33,0.33,0.33,0.33,0.33,0.33,0.33,0.33,0.33,0.33,0.33,0.33,0.33,0.33,0.33,0.331,0.331,0.331,0.331,0.331,0.331,0.331,0.331,0.332,0.332,0.332,0.332,0.332,0.332,0.332,0.332,0.332,0.332,0.332,0.332,0.332,0.333,0.333,0.333,0.333,0.333,0.333,0.333,0.333,0.333,0.333,0.333,0.333,0.333,0.333,0.333,0.333,0.333,0.333,0.334,0.334,0.334,0.334,0.334,0.334,0.334,0.334,0.333,0.333,0.333,0.334,0.334,0.334,0.334,0.334,0.334,0.335,0.335,0.335,0.335,0.335,0.335,0.335,0.335,0.335,0.335,0.335,0.336,0.335,0.335,0.335,0.335,0.335,0.335,0.335,0.336,0.336,0.336,0.336,0.336,0.336,0.337,0.337,0.337,0.337,0.337,0.337,0.337,0.337,0.337,0.337,0.337,0.337,0.337,0.337,0.337,0.337,0.337,0.337,0.337,0.338,0.338,0.338,0.338,0.338,0.338,0.338,0.338,0.338,0.338,0.338,0.338,0.338,0.339,0.339,0.339,0.339,0.339,0.339,0.339,0.339,0.339,0.34,0.34,0.34,0.34,0.34,0.34,0.34,0.34,0.34,0.34,0.34,0.34,0.34,0.34,0.34,0.34,0.34,0.34,0.34,0.341,0.341,0.341,0.341,0.341,0.341,0.341,0.341,0.341,0.341,0.341,0.341,0.341,0.342,0.342,0.342,0.342,0.342,0.342,0.342,0.342,0.342,0.342,0.342,0.342,0.342,0.342,0.343,0.343,0.343,0.343,0.343,0.343,0.343,0.344,0.344,0.344,0.344,0.344,0.344,0.345,0.345,0.345,0.345,0.344,0.344,0.344,0.344,0.344,0.344,0.344,0.345,0.344,0.344,0.344,0.344,0.344,0.344,0.345,0.345,0.345,0.345,0.345,0.345,0.345,0.345,0.345,0.346,0.346,0.346,0.346,0.346,0.346,0.346,0.346,0.346,0.346,0.347,0.347,0.347,0.347,0.347,0.347,0.347,0.347,0.347,0.347,0.347,0.347,0.346,0.346,0.347,0.347,0.347,0.347,0.347,0.347,0.347,0.347,0.347,0.347,0.347,0.348,0.348,0.348,0.348,0.348,0.348,0.349,0.349,0.349,0.349,0.349,0.349,0.35,0.35,0.35,0.35,0.35,0.35,0.35,0.35,0.35,0.35,0.35,0.35,0.35,0.35,0.35,0.35,0.35,0.35,0.351,0.351,0.351,0.351,0.351,0.351,0.351,0.351,0.351,0.351,0.351,0.351,0.351,0.351,0.351,0.351,0.351,0.351,0.351,0.351,0.351,0.351,0.351,0.351,0.351,0.351,0.352,0.352,0.352,0.352,0.352,0.352,0.352,0.352,0.352,0.352,0.352,0.352,0.352,0.352,0.352,0.352,0.352,0.352,0.352,0.352,0.352,0.353,0.353,0.353,0.353,0.353,0.353,0.353,0.353,0.353,0.353,0.353,0.353,0.353,0.353,0.353,0.354,0.354,0.354,0.354,0.354,0.354,0.354,0.354,0.354,0.354,0.354,0.354,0.355,0.355,0.355,0.355,0.355,0.355,0.355,0.355,0.356,0.356,0.356,0.356,0.356,0.356,0.356,0.356,0.356,0.356,0.356
0.639,0.639,0.638,0.638,0.638,0.638,0.638,0.638,0.638,0.638,0.638,0.639,0.639,0.64,0.64,0.64,0.641,0.642,0.642,0.642,0.643,0.644,0.644,0.644,0.645,0.645,0.645,0.645,0.645,0.645,0.645,0.645,0.644,0.644,0.643,0.642,0.642,0.642,0.641,0.641,0,0,0,0,0,0,0,0,0,0,0,0,0,0,0,0,0,0,0,0,0,0,0,0,0,0,0,0,0,0,0.327,0,0.327,0.326,0.326,0.326,0.325,0.325,0.325,0.325,0.325,0.324,0.324,0.324,0.324,0.324,0.324,0.324,0.324,0.324,0.324,0.324,0.324,0.324,0.324,0.324,0.324,0.325,0.325,0.325,0.325,0.325,0.325,0.325,0.325,0.325,0.325,0.325,0.325,0.325,0.325,0.325,0.325,0.325,0.325,0.325,0.325,0.325,0.325,0.326,0.326,0.326,0.326,0.326,0.327,0.327,0.327,0.327,0.327,0.327,0.327,0.327,0.327,0.327,0.327,0.327,0.327,0.327,0.327,0.327,0.327,0.327,0.327,0.327,0.327,0.327,0.327,0.327,0.328,0.328,0.328,0.328,0.328,0.328,0.328,0.328,0.328,0.328,0.328,0.329,0.329,0.329,0.329,0.329,0.329,0.329,0.329,0.329,0.329,0.329,0.329,0.329,0.329,0.329,0.329,0.329,0.329,0.329,0.329,0.329,0.33,0.33,0.33,0.329,0.33,0.33,0.33,0.33,0.33,0.33,0.331,0.331,0.331,0.331,0.331,0.331,0.331,0.331,0.331,0.331,0.331,0.331,0.331,0.331,0.332,0.332,0.332,0.332,0.332,0.332,0.332,0.332,0.332,0.332,0.332,0.332,0.332,0.332,0.332,0.332,0.332,0.332,0.333,0.333,0.333,0.333,0.333,0.333,0.333,0.333,0.333,0.332,0.332,0.333,0.333,0.333,0.333,0.333,0.333,0.333,0.333,0.334,0.334,0.334,0.334,0.334,0.334,0.334,0.334,0.335,0.335,0.335,0.334,0,0.334,0.334,0.334,0.334,0.334,0.335,0.335,0.335,0.335,0.335,0.336,0.336,0.336,0.336,0.336,0.336,0.336,0.336,0.336,0.336,0.336,0.336,0.336,0.336,0.336,0.336,0.337,0.337,0.337,0.337,0.337,0.337,0.337,0.337,0.337,0.337,0.337,0.337,0.337,0.337,0.337,0.337,0.338,0.338,0.338,0.338,0.338,0.338,0.338,0.338,0.339,0.339,0.339,0.339,0.339,0.339,0.339,0.339,0.339,0.339,0.339,0.339,0.339,0.339,0.339,0.339,0.339,0.339,0.339,0.34,0.34,0.34,0.34,0.34,0.34,0.34,0.34,0.34,0.34,0.34,0.34,0.341,0.341,0.341,0.341,0.341,0.341,0.341,0.341,0.341,0.341,0.341,0.341,0.341,0.341,0.341,0.341,0.342,0.342,0.342,0.342,0.342,0.342,0.342,0.343,0.343,0.343,0.343,0.343,0.344,0.344,0.344,0.344,0.344,0.344,0.344,0.344,0.344,0.343,0.343,0.344,0.343,0.344,0.343,0.343,0.343,0.343,0.343,0.343,0.343,0.344,0.344,0.344,0.344,0.344,0.344,0.344,0.344,0.344,0.344,0.345,0.345,0.345,0.345,0.345,0.345,0.345,0.345,0.345,0.345,0.345,0.346,0.346,0.346,0.346,0.346,0.346,0.346,0.346,0.346,0.346,0.346,0.346,0.346,0.346,0.346,0.346,0.346,0.346,0.346,0.346,0.346,0.347,0.347,0.347,0.347,0.347,0.347,0.348,0.348,0.348,0.348,0.348,0.348,0.349,0.349,0.349,0.349,0.349,0.349,0.349,0.349,0.349,0.349,0.349,0.349,0.349,0.349,0.349,0.349,0.349,0.349,0.35,0.35,0.35,0.35,0.35,0.35,0.35,0.35,0.35,0.35,0.35,0.35,0.35,0.35,0.35,0.35,0.35,0.35,0.35,0.35,0.35,0.35,0.35,0.35,0.35,0.35,0.351,0.351,0.351,0.351,0.351,0.351,0.351,0.351,0.352,0.351,0.351,0.351,0.351,0.351,0.351,0.351,0.351,0.351,0.351,0.351,0.352,0.352,0.352,0.352,0.352,0.352,0.352,0.352,0.352,0.352,0.352,0.352,0.352,0.352,0.352,0.352,0.352,0.353,0.353,0.353,0.353,0.353,0.353,0.353,0.353,0.353,0.353,0.354,0.354,0.354,0.354,0.354,0.354,0.354,0.354,0.354,0.355,0.355,0.355,0.355,0.355,0.355,0.355,0.355,0.355,0.355,0.355,0.355
0.637,0.638,0.637,0.637,0.637,0.637,0.637,0.637,0.637,0.637,0.637,0.638,0.638,0.638,0.638,0.639,0.64,0.64,0.641,0.642,0.642,0.642,0.642,0.643,0.643,0.644,0.644,0.644,0.644,0.644,0.644,0.643,0.643,0.642,0.642,0.642,0.64,0.64,0.64,0.639,0.638,0,0,0,0,0,0,0,0,0,0,0,0,0,0,0,0,0,0,0,0,0,0,0,0,0,0,0,0,0,0,0.326,0.326,0.326,0.325,0.325,0.325,0.324,0.324,0.324,0.324,0.324,0.323,0.323,0.323,0.324,0.324,0.324,0.324,0.324,0.324,0.324,0.324,0.324,0.324,0.324,0.324,0.324,0.324,0.324,0.324,0.324,0.324,0.324,0.324,0.325,0.325,0.325,0.325,0.325,0.325,0.325,0.325,0.324,0.324,0.325,0.325,0.325,0.325,0.325,0.325,0.325,0.325,0.326,0.326,0.326,0.326,0.326,0.326,0.326,0.326,0.326,0.326,0.326,0.326,0.326,0.326,0.326,0.326,0.327,0.326,0.326,0.326,0.327,0.327,0.326,0.327,0.327,0.327,0.327,0.327,0.327,0.327,0.327,0.327,0.327,0.328,0.328,0.328,0.328,0.328,0.328,0.328,0.328,0.328,0.328,0.328,0.328,0.328,0.328,0.328,0.328,0.328,0.328,0.328,0.329,0.329,0.329,0.329,0.329,0.329,0.329,0.329,0.329,0.329,0.329,0.329,0,0.329,0.33,0.33,0.33,0.33,0.33,0.33,0.33,0.33,0.33,0.331,0.33,0.33,0.331,0.331,0.331,0.331,0.331,0.331,0.331,0.331,0.331,0.331,0.331,0.331,0.331,0.331,0.331,0.331,0.331,0.331,0.331,0.331,0.332,0.332,0.332,0.332,0.332,0.332,0.332,0.332,0.332,0.332,0.332,0.331,0.332,0.332,0.332,0.332,0.332,0.332,0.332,0.333,0.333,0.333,0.333,0.333,0.333,0.333,0.333,0.333,0.333,0.334,0.333,0.333,0.333,0.333,0.333,0.333,0.333,0.333,0.333,0.334,0.334,0.334,0.335,0.335,0.335,0.335,0.335,0.335,0.335,0.335,0.335,0.335,0.335,0.335,0.335,0.335,0.335,0.336,0.336,0.336,0.336,0.336,0.336,0.336,0.336,0.336,0.336,0.336,0.336,0.336,0.336,0.337,0.337,0.337,0.337,0.337,0.337,0.337,0.337,0.337,0.337,0.337,0.338,0.338,0.338,0.338,0.338,0.338,0.338,0.338,0.338,0.338,0.338,0.338,0.338,0.338,0.338,0.339,0.339,0.339,0.339,0.339,0.339,0.339,0.339,0.339,0.339,0.339,0.339,0.339,0.339,0.339,0.34,0.34,0.34,0.34,0.34,0.34,0.34,0.34,0.34,0.34,0.34,0.34,0.34,0.34,0.34,0.34,0.341,0.34,0.341,0.341,0.341,0.341,0.341,0.342,0.342,0.342,0.342,0.342,0.343,0.343,0.343,0.343,0.343,0.343,0.343,0.343,0.343,0.343,0.343,0.343,0.343,0.343,0.343,0.343,0.343,0.343,0.343,0.343,0.343,0.343,0.343,0.343,0.343,0.343,0.343,0.343,0.343,0.343,0.343,0.343,0.343,0.343,0.344,0.344,0.344,0.344,0.344,0.344,0.344,0.344,0.344,0.344,0.344,0.345,0.345,0.345,0.345,0.345,0.345,0.345,0.345,0.345,0.345,0.345,0.345,0.345,0.345,0.345,0.346,0.346,0.346,0.346,0.346,0.346,0.346,0.346,0.346,0.346,0.347,0.347,0.347,0.347,0.347,0.347,0.348,0.348,0.348,0.348,0.348,0.348,0.348,0.348,0.348,0.348,0.348,0.348,0.348,0.348,0.348,0.348,0.348,0.348,0.349,0.349,0.349,0.349,0.349,0.349,0.349,0.349,0.349,0.349,0.349,0.349,0.349,0.349,0.35,0.35,0.349,0.349,0.349,0.349,0.349,0.349,0.349,0.349,0.349,0.349,0.349,0.35,0.35,0.35,0.35,0.35,0.35,0.35,0.35,0.351,0.351,0.351,0.351,0.351,0.35,0.35,0.35,0.35,0.35,0.35,0.351,0.351,0.351,0.351,0.351,0.351,0.351,0.351,0.351,0.351,0.351,0.351,0.351,0.351,0.351,0.351,0.351,0.352,0.352,0.352,0.352,0.352,0.352,0.352,0.353,0.353,0.353,0.353,0.353,0.353,0.353,0.353,0.353,0.353,0.353,0.353,0.354,0.354,0.354,0.354,0.354,0.354,0.355,0.355,0.355,0.355,0.355,0.355,0.355
0.637,0.636,0.636,0.636,0.636,0.636,0.636,0.636,0.636,0.636,0.636,0.636,0.637,0.637,0.638,0.638,0.638,0.639,0.639,0.64,0.64,0.64,0.641,0.642,0.642,0.642,0.642,0.642,0.642,0.642,0.642,0.642,0.641,0.641,0.641,0.64,0.64,0.639,0.638,0.638,0.637,0,0,0,0,0,0,0,0,0,0,0,0,0,0,0,0,0,0,0,0,0,0,0,0,0,0,0,0,0,0,0.325,0.325,0.325,0.325,0.324,0.324,0.324,0.324,0.323,0.323,0.323,0.323,0.323,0.323,0.323,0.323,0.323,0.323,0.323,0.323,0.323,0.323,0.323,0.323,0.323,0.323,0.323,0.323,0.323,0.323,0.323,0.323,0.324,0.324,0.324,0.324,0.324,0.324,0.324,0.324,0.324,0.324,0.324,0.324,0.324,0.324,0.324,0.324,0.324,0.324,0.324,0.325,0.325,0.325,0.325,0.325,0.325,0.325,0.325,0.325,0.325,0.325,0.325,0.325,0.325,0.325,0.325,0.325,0.326,0.326,0.326,0.326,0.326,0.326,0.326,0.326,0.326,0.326,0.326,0.326,0.326,0.327,0.326,0.327,0.327,0.327,0.327,0.327,0.327,0.327,0.327,0.327,0.327,0.327,0.327,0.327,0.327,0.327,0.327,0.327,0.328,0.328,0.328,0.328,0.328,0.328,0.328,0.328,0.328,0.328,0.328,0.328,0.328,0.328,0.328,0.328,0,0.329,0.329,0.329,0.329,0.329,0.329,0.33,0.33,0.33,0.33,0.33,0.329,0.33,0.33,0.33,0.33,0.33,0.33,0.33,0.33,0.33,0.33,0.33,0.33,0.33,0.33,0.33,0.33,0.331,0.33,0.331,0.331,0.331,0.331,0.331,0.331,0.331,0.331,0.331,0.331,0.331,0.331,0.331,0.331,0.331,0.331,0.331,0.331,0.331,0.331,0.331,0.332,0.332,0.332,0.332,0.332,0.332,0.333,0.333,0.333,0.333,0.333,0.333,0.333,0.332,0.332,0.332,0.332,0.332,0.332,0.332,0.333,0.333,0.333,0.333,0.333,0.334,0.334,0.334,0.335,0.335,0.334,0.335,0.335,0.335,0.335,0.335,0.335,0.335,0.335,0.335,0.335,0.335,0.335,0.335,0.335,0.335,0.335,0.335,0.335,0.335,0.335,0.335,0.335,0.336,0.336,0.336,0.336,0.336,0.336,0.337,0.337,0.337,0.337,0.337,0.337,0.337,0.337,0.337,0.337,0.337,0.337,0.337,0.337,0.337,0.337,0.337,0.338,0.338,0.338,0.338,0.338,0.338,0.338,0.338,0.338,0.338,0.338,0.338,0.338,0.338,0.338,0.339,0.339,0.339,0.339,0.339,0.339,0.339,0.339,0.339,0.339,0.339,0.339,0.339,0.339,0.339,0.339,0.34,0.339,0.34,0.34,0.34,0.34,0.34,0.34,0.34,0.34,0.341,0.341,0.341,0.341,0.341,0.342,0.342,0.342,0.342,0.342,0.342,0.342,0.342,0.342,0.342,0.342,0.342,0.342,0.342,0.342,0.342,0.342,0.342,0.342,0.342,0.342,0.342,0.342,0.342,0.342,0.342,0.343,0.343,0.343,0.343,0.343,0.343,0.343,0.343,0.343,0.343,0.343,0.343,0.343,0.343,0.343,0.343,0.343,0.343,0.343,0.344,0.344,0.344,0.344,0.344,0.344,0.344,0.344,0.344,0.344,0.344,0.344,0.344,0.345,0.345,0.345,0.345,0.345,0.345,0.345,0.345,0.345,0.345,0.346,0.346,0.346,0.346,0.346,0.346,0.346,0.347,0.347,0.347,0.347,0.347,0.347,0.347,0.347,0.347,0.347,0.347,0.347,0.347,0.347,0.347,0.347,0.347,0.347,0.347,0.348,0.348,0.348,0.348,0.348,0.348,0.349,0.349,0.349,0.349,0.348,0.348,0.349,0.349,0.349,0.349,0.349,0.349,0.349,0.348,0.348,0.348,0.348,0.348,0.348,0.348,0.348,0.349,0.349,0.349,0.349,0.349,0.349,0.349,0.35,0.35,0.35,0.35,0.35,0.35,0.35,0.35,0.35,0.35,0.35,0.35,0.35,0.35,0.35,0.35,0.35,0.35,0.35,0.35,0.35,0.35,0.35,0.35,0.35,0.35,0.35,0.35,0.351,0.351,0.351,0.351,0.351,0.351,0.351,0.352,0.352,0.352,0.352,0.352,0.352,0.352,0.352,0.352,0.352,0.352,0.352,0.353,0.353,0.353,0.353,0.353,0.353,0.354,0.354,0.354,0.354,0.354,0.354,0.354,0.354
