1.631,1.631,1.631,1.631,1.631,1.631,1.631,1.631,1.631,1.631,1.631,1.631,1.631,1.627,1.627,1.627,1.627,1.627,1.627,1.627,1.627,1.627,1.622,1.622,1.618,1.618,1.618,1.614,1.614,1.614,1.609,1.609,1.609,0,0,0,0,0,0,0,0,0,0,0,0,0,0,0,0,0,0,0,0,0,0.606,0.605,0.605,0.603,0.603,0.6,0.597,0.593,0.591,0.589,0.587,0.586,0.585,0.584,0.584,0.584,0.584,0.584,0.584,0.584,0.584,0.584,0.583,0.583,0.583,0.583,0.582,0.582,0.582,0.582,0.582,0.581,0.581,0.581,0.581,0.58,0.58,0.579,0.579,0.579,0.579,0.579,0.579,0.579,0.579,0.579,0.578,0.578,0.578,0.577,0.577,0.576,0.576,0.576,0.576,0.576,0.576,0.576,0.576,0.576,0.576,0.576,0.577,0.577,0.577,0.577,0.577,0.577,0.578,0.578,0.578,0.579,0.579,0.58,0.58,0.581,0.581,0.582,0.582,0.583,0.583,0.584,0.584,0.584,0.585,0.585,0.585,0.585,0.586,0.586,0.587,0.589,0.591,0.592,0.593,0.595,0.596,0.596,0.597,0.596,0.594,0.59,0,0,0.58,0.576,0.572,0.569,0.566,0.565,0.564,0.563,0.563,0.563,0.562,0.562,0.562,0.562,0.561,0.561,0.561,0.561,0.561,0.56,0.56,0.56,0.56,0.56,0.559,0.559,0.559,0.559,0.559,0.559,0.559,0.559,0.559,0.559,0,0,0,0,0,0,0,0.469,0.469,0.47,0.47,0.47,0.47,0.471,0.471,0.471,0.471,0.471,0.471,0.47,0.47,0.47,0.47,0.47,0.469,0.469,0.469,0.469,0.469,0.469,0.469,0.468,0.468,0.468,0.468,0.468,0.468,0.468,0.468,0.468,0.468,0.468,0.468,0.468,0.468,0.468,0.468,0.468,0.468,0.468,0.468,0.468,0.468,0.468,0.467,0.466,0.466,0.466,0,0,0.557,0.556,0,0.556,0.556,0.555,0.554,0.554,0.553,0.552,0.551,0.55,0.55,0.549,0.548,0.548,0.547,0.547,0.547,0.547,0.547,0.547,0.548,0.548,0.549,0.549,0.549,0.55,0.55,0.55,0.549,0.55,0.55,0.55,0.549,0.55,0.549,0.549,0.549,0.548,0.548,0.548,0.548,0.548,0.548,0.548,0.548,0.548,0.548,0.548,0.548,0.548,0.548,0.548,0.548,0.548,0.548,0.548,0.548,0.548,0.548,0.548,0.548,0.548,0.548,0.548,0.548,0.547,0.547,0.547,0.547,0.547,0.547,0.546,0.546,0.546,0.546,0.546,0.545,0.546,0.545,0.545,0.545,0.545,0.545,0.545,0.545,0.545,0.545,0.545,0.545,0.545,0.545,0.544,0.544,0.544,0.543,0.543,0.543,0.542,0.541,0.541,0.54,0.54,0.54,0.54,0.54,0.54,0.54,0.54,0.541,0.541,0.541,0.541,0.542,0.542,0.542,0.542,0.541,0.541,0.541,0.541,0.541,0.54,0.539,0.539,0.539,0.538,0.537,0,0.536,0.547,0,0.608,0.606,0.602,0.603,0.602,0.6,0.598,0.596,0.594,0.592,0.589,0.588,0.586,0.584,0.582,0.581,0.58,0.58,0.58,0.58,0.58,0.581,0.58,0.579,0.578,0.576,0.572,0.569,0.565,0,0.554,0,0.546,0.542,0.539,0.536,0.534,0.533,0.532,0.531,0.53,0.53,0.53,0.53,0.53,0.529,0.529,0.528,0.528,0.527,0.527,0.526,0.526,0.526,0.525,0.525,0.525,0.525,0.525,0.525,0.525,0.525,0.525,0.525,0.525,0.525,0.524,0.524,0.524,0.524,0.524,0.523,0.523,0.523,0.523,0.523,0.522,0.522,0.522,0.522,0.522,0.522,0.522,0.522,0.522,0.521,0.521,0.521,0.521,0.521,0.521,0.521,0.52,0.52,0.52,0.52,0.52,0.52,0.52,0.52,0.52,0.52,0.52,0.52,0.52,0.52,0.519,0.519,0.519,0.519,0.519,0.519,0.518,0.518,0.518,0.518,0.518,0.518,0.518,0.518,0.518,0.518,0.518,0.518,0.518,0.518,0.518,0.518,0.518,0.518,0.518,0.518,0.518,0.518,0.518,0.518,0.518,0.518,0.518,0.518,0.518,0.518,0.518,0.518,0.518,0.518,0.518,0.518,0.518,0.518,0.518,0.518,0.518,0.518,0.518,0.518,0.518,0.518
1.631,1.627,1.627,1.627,1.627,1.627,1.627,1.627,1.627,1.627,1.627,1.627,1.627,1.627,1.627,1.627,1.627,1.627,1.622,1.622,1.622,1.622,1.622,1.622,1.618,1.618,1.618,1.614,1.614,1.614,1.614,1.609,1.614,0,0,0,0,0,0,0,0,0,0,0,0,0,0,0,0,0,0,0,0,0,0.611,0.609,0.609,0.608,0.606,0.604,0.6,0.597,0.595,0.593,0.591,0.589,0.588,0.587,0.587,0.587,0.587,0.587,0.587,0.586,0.586,0.586,0.586,0.586,0.585,0.585,0.585,0.584,0.584,0.584,0.584,0.584,0.583,0.583,0.583,0.582,0.582,0.582,0.582,0.581,0.581,0.581,0.581,0.581,0.581,0.581,0.581,0.58,0.579,0.579,0.579,0.578,0.578,0.578,0.578,0.578,0.578,0.578,0.578,0.578,0.578,0.578,0.578,0.578,0.578,0.578,0.578,0.579,0.579,0.58,0.58,0.58,0.581,0.582,0.582,0.583,0.583,0.583,0.584,0.584,0.585,0.586,0.586,0.586,0.586,0.586,0.586,0.587,0.587,0.587,0.588,0.589,0.591,0.592,0.592,0.593,0.593,0.593,0.593,0.591,0.588,0.584,0,0.578,0.575,0.571,0.568,0.566,0.565,0.564,0.562,0.562,0.561,0.561,0.561,0.561,0.561,0.561,0.561,0.56,0.56,0.56,0.56,0.56,0.559,0.559,0.559,0.559,0.559,0.558,0.558,0.558,0.558,0.559,0.558,0.558,0.559,0,0,0,0,0,0,0,0.469,0.469,0.469,0.469,0.47,0.47,0.47,0.47,0.47,0.47,0.47,0.47,0.47,0.47,0.469,0.469,0.469,0.469,0.469,0.469,0.468,0.468,0.468,0.468,0.468,0.468,0.468,0.468,0.467,0.467,0.467,0.467,0.467,0.467,0.467,0.468,0.468,0.468,0.468,0.468,0.468,0.468,0.468,0.468,0.468,0.468,0.468,0.468,0.467,0.467,0.466,0.466,0.466,0.466,0,0,0,0,0,0.555,0.555,0.554,0.553,0.551,0.55,0.55,0.549,0.548,0.547,0.547,0.547,0.547,0.547,0.547,0.547,0.547,0.547,0.547,0.548,0.548,0.549,0.549,0.549,0.549,0.549,0.549,0.549,0.549,0.549,0.548,0.548,0.548,0.548,0.548,0.548,0.547,0.547,0.547,0.547,0.547,0.547,0.547,0.547,0.547,0.547,0.547,0.547,0.547,0.547,0.547,0.547,0.547,0.547,0.547,0.547,0.547,0.547,0.547,0.547,0.546,0.546,0.546,0.546,0.546,0.545,0.545,0.545,0.545,0.545,0.544,0.544,0.545,0.545,0.545,0.545,0.545,0.544,0.544,0.544,0.544,0.544,0.544,0.545,0.544,0.544,0.544,0.544,0.544,0.544,0.543,0.542,0.542,0.542,0.541,0.54,0.54,0.539,0.539,0.539,0.539,0.539,0.539,0.539,0.539,0.54,0.54,0.54,0.54,0.54,0.54,0.541,0.541,0.541,0.541,0.54,0.54,0.54,0.539,0.539,0.538,0.538,0.537,0.536,0.536,0.535,0.542,0.539,0,0.603,0.602,0.603,0.602,0.6,0.598,0.597,0.595,0.592,0.59,0.588,0.586,0.583,0.582,0.581,0.579,0.579,0.579,0.578,0.579,0.579,0.578,0.576,0.574,0.571,0.567,0,0.557,0,0.547,0.544,0.541,0.537,0.535,0.533,0.532,0.532,0.53,0.53,0.53,0.53,0.529,0.529,0.528,0.528,0.527,0.527,0.526,0.526,0.525,0.525,0.525,0.525,0.524,0.524,0.524,0.524,0.524,0.524,0.524,0.524,0.524,0.524,0.524,0.524,0.523,0.523,0.523,0.523,0.523,0.522,0.522,0.522,0.522,0.521,0.521,0.521,0.521,0.521,0.521,0.521,0.521,0.521,0.521,0.521,0.521,0.521,0.52,0.52,0.52,0.52,0.519,0.519,0.519,0.519,0.519,0.519,0.519,0.519,0.519,0.519,0.519,0.519,0.519,0.519,0.518,0.518,0.518,0.518,0.518,0.518,0.518,0.517,0.517,0.517,0.517,0.517,0.517,0.517,0.517,0.517,0.517,0.517,0.517,0.517,0.517,0.517,0.517,0.518,0.518,0.518,0.518,0.518,0.518,0.518,0.518,0.518,0.518,0.518,0.518,0.518,0.518,0.518,0.518,0.517,0.517,0.517,0.517,0.517,0.517,0.517,0.517,0.518,0.518,0.518,0.518,0.518
1.627,1.627,1.627,1.627,1.627,1.627,1.627,1.627,1.627,1.627,1.627,1.627,1.627,1.627,1.627,1.627,1.622,1.622,1.622,1.622,1.622,1.622,1.622,1.622,1.618,1.618,1.618,1.618,1.614,1.614,1.614,1.614,1.614,0,0,0,0,0,0,0,0,0,0,0,0,0,0,0,0,0,0,0,0,0,0.612,0.611,0.611,0.61,0.609,0.607,0.604,0.601,0.599,0.596,0.594,0.592,0.591,0.59,0.589,0.589,0.589,0.589,0.589,0.588,0.588,0.588,0.588,0.588,0.588,0.587,0.587,0.587,0.587,0.587,0.587,0.586,0.586,0.586,0.585,0.584,0.584,0.584,0.583,0.583,0.583,0.583,0.583,0.583,0.583,0.583,0.582,0.582,0.581,0.581,0.581,0.58,0.579,0.579,0.579,0.579,0.579,0.579,0.579,0.579,0.579,0.58,0.58,0.58,0.58,0.58,0.58,0.581,0.581,0.581,0.582,0.582,0.583,0.583,0.584,0.584,0.585,0.585,0.586,0.586,0.587,0.587,0.587,0.587,0.588,0.588,0.588,0.588,0.588,0.588,0.589,0.59,0.591,0.591,0.591,0.591,0.591,0.589,0.588,0.587,0.582,0.579,0.575,0.573,0.57,0.568,0.565,0.564,0.563,0.562,0.561,0.561,0.561,0.56,0.56,0.56,0.56,0.56,0.56,0.56,0.559,0.559,0.559,0.559,0.558,0.558,0.558,0.558,0.558,0.557,0.557,0.557,0.558,0.558,0.558,0,0,0,0,0,0,0,0,0.468,0.468,0.468,0.469,0.469,0.469,0.469,0.469,0.469,0.469,0.469,0.469,0.469,0.469,0.469,0.469,0.469,0.469,0.469,0.468,0.468,0.468,0.468,0.467,0.467,0.467,0.467,0.467,0.466,0.466,0.466,0.466,0.466,0.467,0.467,0.467,0.467,0.467,0.467,0.467,0.467,0.468,0.468,0.468,0.468,0.468,0.468,0.468,0.467,0.467,0.467,0.466,0.466,0.466,0.466,0.465,0.465,0.465,0.464,0,0,0,0,0,0,0,0,0,0.547,0,0,0.545,0.545,0.546,0.546,0.546,0.546,0,0,0,0,0.548,0.548,0.549,0.549,0.548,0.548,0.548,0.548,0.548,0.548,0.547,0.547,0.547,0.547,0.547,0.547,0.547,0.546,0.546,0.546,0.546,0.546,0.546,0.546,0.546,0.546,0.546,0.546,0.546,0.546,0.546,0.545,0.545,0.545,0.545,0.545,0.545,0.545,0.545,0.545,0.545,0.544,0.544,0.544,0.544,0.543,0.543,0.544,0.543,0.543,0.543,0.543,0.543,0.544,0.544,0.544,0.543,0.543,0.543,0.543,0.543,0.543,0.544,0.544,0.544,0.544,0.543,0.543,0.543,0.543,0.542,0.542,0.541,0.54,0.54,0.539,0.539,0.538,0.538,0.538,0.538,0.538,0.538,0.538,0.539,0.539,0.539,0.539,0.54,0.54,0.54,0.54,0.54,0.54,0.54,0.539,0.539,0.538,0.538,0.537,0.536,0.536,0.536,0.535,0.534,0.533,0.533,0,0,0.6,0.603,0.602,0.6,0.599,0.597,0.595,0.593,0.591,0.588,0.586,0.583,0.582,0.58,0.579,0.578,0.578,0.578,0.577,0.577,0.575,0.572,0.569,0.565,0,0,0,0.546,0.542,0.539,0.537,0.535,0.532,0.531,0.531,0.531,0.53,0.53,0.529,0.529,0.528,0.528,0.527,0.527,0.526,0.526,0.525,0.525,0.525,0.524,0.524,0.524,0.523,0.523,0.523,0.523,0.523,0.523,0.523,0.523,0.523,0.523,0.523,0.523,0.522,0.522,0.522,0.522,0.521,0.521,0.521,0.521,0.521,0.521,0.521,0.521,0.52,0.52,0.52,0.52,0.52,0.52,0.52,0.52,0.52,0.519,0.519,0.519,0.519,0.519,0.519,0.518,0.518,0.518,0.518,0.518,0.518,0.518,0.518,0.518,0.518,0.518,0.518,0.518,0.518,0.518,0.518,0.518,0.517,0.517,0.517,0.516,0.516,0.516,0.516,0.516,0.516,0.516,0.516,0.516,0.516,0.516,0.516,0.516,0.517,0.517,0.517,0.517,0.517,0.517,0.517,0.517,0.517,0.517,0.517,0.517,0.517,0.517,0.517,0.517,0.517,0.517,0.517,0.517,0.517,0.517,0.517,0.517,0.517,0.517,0.517,0.517,0.517,0.517,0.517,0.517
1.622,1.622,1.622,1.622,1.622,1.622,1.622,1.622,1.622,1.622,1.627,1.627,1.627,1.622,1.622,1.622,1.622,1.622,1.622,1.622,1.622,1.622,1.622,1.622,1.618,1.618,1.618,1.618,1.618,1.614,1.614,1.618,0,0,0,0,0,0,0,0,0,0,0,0,0,0,0,0,0,0,0,0,0,0,0.614,0.613,0.612,0.611,0.61,0.608,0.605,0.603,0.601,0.599,0.597,0.595,0.593,0.592,0.591,0.591,0.591,0.591,0.591,0.59,0.59,0.59,0.59,0.59,0.59,0.589,0.589,0.589,0.589,0.589,0.589,0.589,0.588,0.588,0.587,0.587,0.586,0.586,0.586,0.585,0.585,0.584,0.584,0.584,0.584,0.584,0.584,0.584,0.583,0.583,0.582,0.582,0.582,0.581,0.581,0.581,0.581,0.581,0.582,0.582,0.581,0.582,0.582,0.582,0.582,0.582,0.582,0.583,0.583,0.583,0.584,0.584,0.584,0.585,0.586,0.586,0.587,0.587,0.587,0.588,0.588,0.588,0.588,0.589,0.589,0.589,0.589,0.589,0.589,0.589,0.59,0.591,0.591,0.591,0.59,0.589,0.588,0.586,0.584,0.581,0.577,0.574,0.571,0.569,0.567,0.565,0.563,0.561,0.561,0.56,0.56,0.56,0.56,0.559,0.559,0.559,0.559,0.559,0.559,0.559,0.559,0.558,0.558,0.558,0.558,0.557,0.557,0.557,0.556,0.557,0.556,0.557,0.556,0.557,0.557,0,0,0,0,0,0,0,0,0.468,0.468,0.468,0.469,0.468,0.469,0.468,0.468,0.468,0.469,0.469,0.469,0.469,0.468,0.468,0.468,0.468,0.468,0.468,0.468,0.468,0.468,0.467,0.467,0.466,0.466,0.466,0.466,0.466,0.466,0.466,0.466,0.466,0.466,0.466,0.466,0.466,0.466,0.466,0.466,0.466,0.467,0.467,0.467,0.467,0.467,0.467,0.467,0.467,0.467,0.466,0.465,0.465,0.466,0.465,0.465,0,0,0,0,0.463,0.463,0,0,0,0,0,0,0,0,0,0,0,0,0,0,0,0,0,0,0,0,0.548,0.548,0.548,0.548,0.548,0.548,0.548,0.547,0.547,0.547,0.547,0.546,0.546,0.546,0.546,0.546,0.546,0.545,0.546,0.546,0.546,0.545,0.545,0.545,0.545,0.545,0.545,0.544,0.544,0.544,0.544,0.544,0.543,0.544,0.543,0.543,0.543,0.543,0.543,0.543,0.543,0.542,0.542,0.542,0.542,0.542,0.542,0.542,0.542,0.542,0.542,0.542,0.542,0.543,0.543,0.542,0.542,0.542,0.542,0.543,0.542,0.543,0.542,0.543,0.542,0.542,0.542,0.542,0.542,0.541,0.541,0.54,0.539,0.539,0.538,0.538,0.537,0.537,0.537,0.537,0.537,0.538,0.537,0.538,0.538,0.538,0.538,0.539,0.539,0.539,0.539,0.539,0.539,0.539,0.539,0.538,0.538,0.537,0.536,0.536,0.536,0.535,0.535,0.534,0.533,0.533,0,0,0,0.6,0.601,0.6,0.599,0.596,0.595,0.593,0.591,0.589,0.586,0.584,0.582,0.579,0.578,0.578,0.577,0.576,0.575,0.574,0.571,0.567,0,0,0,0.548,0.544,0.541,0.538,0.536,0.534,0.532,0.531,0.531,0.53,0.53,0.53,0.529,0.529,0.528,0.528,0.527,0.527,0.526,0.525,0.525,0.525,0.524,0.524,0.523,0.523,0.522,0.522,0.522,0.522,0.522,0.522,0.522,0.522,0.522,0.522,0.522,0.522,0.521,0.521,0.521,0.521,0.521,0.521,0.521,0.52,0.52,0.52,0.52,0.52,0.52,0.52,0.519,0.519,0.519,0.519,0.519,0.519,0.519,0.518,0.518,0.518,0.518,0.518,0.518,0.518,0.518,0.518,0.518,0.518,0.518,0.518,0.518,0.518,0.518,0.518,0.518,0.518,0.517,0.517,0.517,0.517,0.517,0.516,0.516,0.516,0.516,0.516,0.516,0.516,0.516,0.516,0.516,0.516,0.516,0.516,0.516,0.516,0.516,0.516,0.516,0.516,0.516,0.517,0.517,0.517,0.517,0.517,0.517,0.517,0.517,0.517,0.517,0.517,0.517,0.517,0.516,0.516,0.516,0.516,0.516,0.516,0.516,0.516,0.516,0.516,0.516,0.516,0.516,0.516,0.517
1.622,1.622,1.622,1.622,1.622,1.622,1.622,1.622,1.622,1.622,1.622,1.622,1.622,1.622,1.622,1.622,1.622,1.622,1.622,1.622,1.622,1.622,1.622,1.622,1.618,1.618,1.618,1.618,1.618,1.618,1.618,1.618,1.618,0,0,0,0,0,0,0,0,0,0,0,0,0,0,0,0,0,0,0,0,0.615,0.615,0.614,0.613,0.612,0.611,0.61,0.608,0.606,0.603,0.602,0.6,0.598,0.596,0.595,0.593,0.593,0.593,0.592,0.592,0.592,0.592,0.592,0.592,0.592,0.592,0.592,0.592,0.592,0.592,0.592,0.592,0.591,0.591,0.59,0.589,0.589,0.588,0.588,0.587,0.587,0.586,0.586,0.587,0.586,0.586,0.586,0.586,0.586,0.586,0.585,0.584,0.584,0.583,0.583,0.583,0.583,0.583,0.583,0.583,0.583,0.583,0.583,0.583,0.584,0.584,0.584,0.584,0.584,0.585,0.586,0.586,0.586,0.587,0.587,0.587,0.588,0.588,0.588,0.589,0.589,0.589,0.589,0.589,0.59,0.59,0.59,0.591,0.591,0.591,0.591,0.591,0.591,0.591,0.589,0.588,0.586,0.584,0.582,0.579,0.576,0.572,0.569,0.567,0.566,0.564,0.563,0.561,0.56,0.56,0.559,0.559,0.558,0.558,0.558,0.558,0.558,0.558,0.558,0.558,0.558,0.558,0.557,0.557,0.557,0.556,0.556,0.556,0.556,0.555,0.555,0.555,0.555,0.555,0.555,0.556,0,0,0,0,0,0,0,0.468,0.468,0.468,0.468,0.468,0.468,0.468,0.468,0.468,0.468,0.468,0.468,0.468,0.468,0.468,0.468,0.468,0.468,0.468,0.468,0.468,0.468,0.467,0.467,0.466,0.466,0.466,0.466,0.466,0.466,0.466,0.465,0.466,0.466,0.466,0.466,0.466,0.466,0.466,0.466,0.466,0.466,0.466,0.466,0.466,0.466,0.466,0.466,0.466,0.466,0.466,0.466,0.465,0.465,0.465,0.465,0.465,0,0,0,0,0.463,0.463,0,0,0,0,0,0,0,0,0,0,0,0,0,0.463,0,0,0,0,0.463,0,0.547,0.547,0.547,0.547,0.547,0.547,0.547,0.547,0.547,0.546,0.546,0.546,0.546,0.546,0.546,0.545,0.545,0.545,0.545,0.545,0.544,0.544,0.544,0.544,0.544,0.543,0.543,0.543,0.543,0.543,0.542,0.542,0.542,0.542,0.542,0.542,0.542,0.542,0.541,0.541,0.541,0.541,0.541,0.541,0.541,0.541,0.541,0.541,0.54,0.54,0.541,0.541,0.541,0.541,0.541,0.541,0.541,0.541,0.541,0.541,0.541,0.541,0.541,0.541,0.541,0.541,0.541,0.541,0.54,0.54,0.54,0.539,0.539,0.538,0.538,0.537,0.537,0.537,0.537,0.536,0.536,0.537,0.536,0.537,0.537,0.537,0.537,0.538,0.538,0.538,0.538,0.538,0.538,0.538,0.538,0.537,0.537,0.536,0.536,0.535,0.535,0.534,0.534,0.533,0.533,0.532,0.532,0.532,0,0,0.601,0.599,0.598,0.596,0.595,0.593,0.591,0.588,0.586,0.584,0.581,0.579,0.577,0.576,0.574,0.573,0.571,0.569,0.565,0.561,0,0,0.547,0.543,0.539,0.536,0.535,0.533,0.532,0.531,0.531,0.53,0.53,0.529,0.529,0.528,0.528,0.527,0.527,0.526,0.526,0.525,0.525,0.524,0.524,0.523,0.523,0.522,0.522,0.521,0.521,0.521,0.521,0.521,0.521,0.521,0.521,0.521,0.521,0.521,0.521,0.521,0.52,0.52,0.52,0.52,0.52,0.52,0.519,0.519,0.519,0.519,0.519,0.519,0.518,0.518,0.518,0.518,0.518,0.518,0.518,0.518,0.518,0.518,0.518,0.518,0.518,0.518,0.518,0.518,0.517,0.517,0.518,0.517,0.517,0.517,0.517,0.517,0.517,0.517,0.517,0.517,0.517,0.516,0.516,0.516,0.515,0.515,0.515,0.515,0.515,0.515,0.515,0.515,0.515,0.515,0.515,0.515,0.515,0.515,0.515,0.515,0.516,0.516,0.516,0.516,0.516,0.516,0.516,0.516,0.516,0.516,0.516,0.516,0.516,0.516,0.516,0.516,0.516,0.516,0.516,0.516,0.515,0.515,0.515,0.515,0.515,0.515,0.515,0.515,0.515,0.515,0.515,0.516
1.622,1.622,1.622,1.622,1.622,1.622,1.622,1.622,1.622,1.622,1.622,1.622,1.622,1.622,1.622,1.622,1.622,1.622,1.622,1.622,1.622,1.622,1.622,1.618,1.618,1.618,1.618,1.618,1.618,1.614,1.618,1.618,1.618,0,0,0,0,0,0,0,0,0,0,0,0,0,0,0,0,0,0,0,0,0.616,0.615,0.615,0.614,0.613,0.612,0.611,0.609,0.608,0.606,0.605,0.603,0.6,0.599,0.597,0.596,0.595,0.595,0.594,0.593,0.593,0.593,0.593,0.593,0.593,0.593,0.593,0.593,0.593,0.593,0.594,0.594,0.593,0.593,0.592,0.592,0.591,0.591,0.589,0.589,0.588,0.588,0.588,0.588,0.588,0.588,0.588,0.588,0.588,0.587,0.587,0.587,0.586,0.586,0.586,0.586,0.586,0.586,0.585,0.586,0.586,0.586,0.586,0.586,0.586,0.586,0.586,0.586,0.587,0.587,0.588,0.588,0.588,0.589,0.589,0.589,0.589,0.59,0.59,0.59,0.591,0.591,0.591,0.591,0.591,0.591,0.591,0.592,0.591,0.591,0.591,0.591,0.59,0.589,0.587,0.586,0.583,0.58,0.577,0.574,0.571,0.568,0.566,0.565,0.563,0.561,0.56,0.559,0.559,0.558,0.558,0.557,0.557,0.557,0.557,0.557,0.557,0.557,0.557,0.557,0.557,0.556,0.556,0.556,0.555,0.555,0.554,0.554,0.554,0.554,0.553,0.553,0.553,0.554,0.554,0,0,0,0,0,0,0,0.468,0.468,0.468,0.468,0.467,0.468,0.468,0.468,0.467,0.467,0.467,0.468,0.467,0.468,0.467,0.467,0.467,0.468,0.468,0.468,0.468,0.467,0.467,0.467,0.466,0.466,0.466,0.466,0.465,0.465,0.465,0.466,0.466,0.466,0.466,0.466,0.466,0.466,0.466,0.466,0.466,0.466,0.466,0.466,0.466,0.465,0.465,0.465,0.465,0.465,0.465,0.465,0.465,0.465,0.465,0.465,0.465,0.464,0.464,0.464,0.463,0.463,0.463,0.463,0.463,0,0,0,0,0,0,0,0,0,0,0,0.462,0.463,0.463,0.463,0.463,0,0.463,0.463,0,0,0.547,0.547,0.547,0.547,0.546,0.546,0.546,0.546,0.546,0.545,0.545,0.545,0.545,0.544,0.544,0.544,0.544,0.544,0.544,0.543,0.543,0.543,0.543,0.543,0.542,0.542,0.542,0.542,0.542,0.541,0.541,0.541,0.541,0.541,0.541,0.541,0.541,0.54,0.54,0.54,0.54,0.54,0.539,0.539,0.539,0.539,0.539,0.539,0.539,0.539,0.539,0.54,0.54,0.54,0.54,0.54,0.54,0.54,0.54,0.54,0.54,0.54,0.54,0.54,0.54,0.539,0.539,0.539,0.539,0.538,0.537,0.537,0.536,0.536,0.536,0.536,0.536,0.536,0.536,0.536,0.536,0.536,0.536,0.536,0.536,0.537,0.537,0.537,0.537,0.537,0.537,0.537,0.537,0.537,0.536,0.536,0.535,0.535,0.534,0.533,0.533,0.532,0.532,0.531,0.531,0.531,0.532,0,0,0.599,0.597,0.596,0.594,0.592,0.591,0.588,0.586,0.583,0.581,0.579,0.577,0.575,0.572,0.57,0.567,0.564,0,0,0,0.545,0.541,0.538,0.536,0.534,0.532,0.532,0.531,0.53,0.53,0.53,0.529,0.529,0.528,0.528,0.527,0.526,0.526,0.525,0.525,0.524,0.524,0.523,0.523,0.522,0.521,0.521,0.521,0.521,0.52,0.52,0.52,0.52,0.52,0.52,0.52,0.52,0.52,0.52,0.52,0.52,0.519,0.519,0.519,0.519,0.519,0.519,0.519,0.518,0.518,0.518,0.518,0.518,0.518,0.518,0.518,0.517,0.517,0.517,0.517,0.517,0.517,0.517,0.517,0.517,0.517,0.517,0.517,0.517,0.517,0.517,0.517,0.517,0.517,0.517,0.517,0.517,0.517,0.517,0.516,0.516,0.516,0.516,0.515,0.515,0.515,0.515,0.514,0.514,0.514,0.514,0.514,0.514,0.514,0.515,0.515,0.515,0.515,0.515,0.515,0.515,0.515,0.515,0.515,0.516,0.516,0.516,0.516,0.516,0.516,0.515,0.515,0.515,0.515,0.515,0.515,0.515,0.515,0.515,0.515,0.515,0.514,0.514,0.514,0.514,0.514,0.514,0.514,0.514,0.514,0.514,0.514,0.515
1.622,1.622,1.622,1.622,1.622,1.622,1.622,1.622,1.622,1.622,1.622,1.622,1.622,1.622,1.622,1.622,1.622,1.622,1.622,1.622,1.618,1.618,1.618,1.618,1.614,1.614,1.614,1.614,1.614,1.614,1.614,1.614,1.614,0,0,0,0,0,0,0,0,0,0,0,0,0,0,0,0,0,0,0,0,0.617,0.616,0.615,0.615,0.614,0.614,0.612,0.611,0.609,0.608,0.606,0.605,0.603,0.601,0.6,0.598,0.597,0.596,0.595,0.595,0.595,0.594,0.594,0.594,0.594,0.595,0.595,0.595,0.595,0.595,0.596,0.595,0.595,0.595,0.595,0.593,0.593,0.592,0.592,0.591,0.59,0.59,0.589,0.59,0.589,0.59,0.59,0.59,0.589,0.589,0.589,0.589,0.589,0.588,0.588,0.588,0.588,0.588,0.588,0.588,0.587,0.587,0.587,0.587,0.588,0.588,0.588,0.588,0.589,0.589,0.589,0.59,0.591,0.591,0.591,0.591,0.592,0.592,0.592,0.592,0.592,0.592,0.592,0.592,0.592,0.592,0.593,0.593,0.592,0.592,0.591,0.591,0.589,0.588,0.586,0.582,0.579,0.577,0.574,0.57,0.567,0.565,0.563,0.562,0.56,0.559,0.558,0.557,0.557,0.557,0.556,0.556,0.556,0.556,0.556,0.556,0.556,0.556,0.556,0.556,0.556,0.555,0.555,0.555,0.554,0.554,0.553,0.553,0.552,0.552,0.552,0.552,0.552,0.552,0.552,0,0,0,0,0,0,0,0.467,0.467,0.468,0.468,0.468,0.467,0.467,0.467,0.467,0.466,0.466,0.467,0.467,0.467,0.467,0.466,0.466,0.467,0.467,0.467,0.467,0.466,0.466,0.466,0.466,0.466,0.466,0.465,0.465,0.465,0.465,0.465,0.465,0.466,0.466,0.466,0.466,0.466,0.466,0.466,0.466,0.466,0.465,0.465,0.465,0.465,0.465,0.465,0.465,0.465,0.465,0.465,0.465,0.465,0.464,0.464,0.464,0.464,0.464,0.463,0.463,0.463,0.462,0.462,0.462,0.462,0.461,0,0.461,0.461,0.461,0,0,0,0.462,0.462,0.462,0.462,0.462,0.462,0.462,0.462,0.462,0.462,0.462,0.462,0,0,0,0,0,0,0,0,0,0.545,0.545,0.545,0.544,0.544,0.544,0.544,0.543,0.543,0.543,0.543,0.543,0.542,0.542,0.542,0.542,0.542,0.541,0.541,0.541,0.541,0.541,0.54,0.54,0.54,0.54,0.54,0.539,0.539,0.539,0.539,0.539,0.538,0.538,0.538,0.538,0.538,0.537,0.538,0.538,0.538,0.538,0.538,0.538,0.538,0.538,0.538,0.538,0.538,0.538,0.538,0.538,0.538,0.538,0.538,0.538,0.538,0.538,0.537,0.537,0.536,0.536,0.536,0.536,0.536,0.536,0.535,0.535,0.535,0.535,0.535,0.535,0.535,0.535,0.535,0.535,0.536,0.536,0.536,0.536,0.536,0.536,0.536,0.536,0.536,0.536,0.535,0.535,0.534,0.533,0.533,0.532,0.532,0.531,0.531,0.53,0.53,0.531,0,0,0,0.594,0.589,0.591,0.588,0.589,0.588,0.585,0.582,0.58,0.578,0.575,0.572,0.569,0.566,0.563,0,0,0,0.545,0.541,0.537,0.535,0.533,0.532,0.531,0.53,0.53,0.53,0.529,0.529,0.528,0.528,0.527,0.527,0.526,0.525,0.525,0.525,0.524,0.523,0.523,0.522,0.521,0.521,0.521,0.52,0.52,0.519,0.519,0.519,0.519,0.519,0.519,0.519,0.519,0.519,0.519,0.519,0.519,0.519,0.518,0.518,0.518,0.518,0.518,0.518,0.518,0.518,0.518,0.517,0.517,0.517,0.517,0.517,0.517,0.517,0.517,0.517,0.517,0.517,0.516,0.516,0.516,0.516,0.516,0.516,0.516,0.516,0.516,0.516,0.516,0.516,0.516,0.516,0.516,0.516,0.516,0.516,0.516,0.516,0.515,0.515,0.515,0.514,0.514,0.514,0.514,0.514,0.514,0.514,0.514,0.514,0.514,0.514,0.514,0.514,0.514,0.514,0.515,0.515,0.515,0.515,0.515,0.515,0.515,0.515,0.515,0.515,0.515,0.515,0.515,0.515,0.515,0.514,0.514,0.514,0.514,0.514,0.514,0.514,0.514,0.514,0.514,0.514,0.514,0.514,0.514,0.514,0.514,0.514,0.514,0.514
1.622,1.622,1.622,1.622,1.622,1.622,1.622,1.622,1.622,1.622,1.622,1.622,1.622,1.618,1.618,1.618,1.618,1.618,1.618,1.618,1.618,1.618,1.618,1.614,1.614,1.609,1.609,1.609,1.609,1.605,1.609,1.609,1.609,0,0,0,0,0,0,0,0,0,0,0,0,0,0,0,0,0,0,0,0,0.617,0.616,0.616,0.615,0.615,0.614,0.613,0.612,0.611,0.609,0.608,0.606,0.605,0.603,0.602,0.6,0.599,0.597,0.597,0.596,0.595,0.595,0.595,0.595,0.595,0.596,0.596,0.596,0.596,0.596,0.596,0.596,0.596,0.596,0.596,0.595,0.595,0.594,0.593,0.592,0.592,0.592,0.591,0.591,0.592,0.592,0.592,0.592,0.592,0.592,0.592,0.591,0.591,0.591,0.591,0.591,0.59,0.59,0.589,0.589,0.589,0.589,0.589,0.589,0.589,0.589,0.59,0.59,0.591,0.591,0.592,0.592,0.592,0.592,0.593,0.593,0.593,0.593,0.593,0.593,0.593,0.593,0.593,0.593,0.593,0.593,0.593,0.593,0.593,0.593,0.592,0.591,0.589,0.586,0.583,0.58,0,0.573,0.57,0.567,0.565,0.562,0.56,0.559,0.558,0.557,0.557,0.556,0.556,0.555,0.555,0.555,0.554,0.554,0.555,0.555,0.555,0.555,0.555,0.554,0.554,0.554,0.553,0.553,0.553,0.552,0.551,0.551,0.551,0.551,0.551,0.55,0.551,0.551,0,0,0,0,0,0,0,0,0.466,0.466,0.467,0.466,0.467,0.467,0.467,0.466,0.466,0.466,0.466,0.466,0.466,0.466,0.466,0.466,0.466,0.466,0.466,0.466,0.466,0.466,0.466,0.466,0.465,0.465,0.465,0.465,0.465,0.465,0.465,0.465,0.466,0.466,0.466,0.466,0.466,0.466,0.466,0.465,0.465,0.465,0.465,0.464,0.464,0.464,0.464,0.464,0.464,0.464,0.464,0.464,0.464,0.464,0.464,0.464,0.463,0.463,0.463,0.463,0.462,0.462,0.462,0.461,0.461,0.461,0.461,0.46,0.46,0.46,0.461,0.461,0.461,0.461,0.461,0.461,0.461,0.462,0.462,0.462,0.462,0.462,0.462,0.461,0.461,0.461,0.461,0.46,0,0,0,0,0,0,0,0.544,0.544,0.544,0.544,0.544,0.544,0.543,0.543,0.543,0.543,0.542,0.542,0.542,0.542,0.541,0.541,0.541,0.541,0.541,0.541,0.54,0.54,0.54,0.54,0.54,0.539,0.539,0.539,0.538,0.538,0.538,0.538,0.537,0.537,0.537,0.536,0.536,0.536,0.536,0.536,0.536,0.536,0.536,0.537,0.537,0.537,0.537,0.537,0.537,0.537,0.537,0.537,0.536,0.536,0.536,0.536,0.536,0.536,0.536,0.536,0.536,0.535,0.535,0.535,0.534,0.534,0.534,0.534,0.534,0.534,0.534,0.534,0.534,0.534,0.534,0.535,0.535,0.535,0.535,0.536,0.536,0.536,0.536,0.536,0.535,0.535,0.535,0.534,0.533,0.533,0.532,0.532,0.531,0.531,0.53,0.53,0.53,0,0.535,0,0,0.572,0.578,0.583,0.586,0.587,0.586,0.583,0.58,0.578,0.575,0.572,0.569,0.565,0.561,0.558,0,0.55,0.546,0.541,0.537,0.535,0.533,0.532,0.531,0.53,0.53,0.529,0.529,0.528,0.528,0.527,0.527,0.526,0.526,0.525,0.525,0.524,0.523,0.523,0.522,0.521,0.521,0.521,0.52,0.52,0.519,0.519,0.518,0.518,0.518,0.518,0.518,0.518,0.518,0.518,0.518,0.518,0.518,0.518,0.518,0.518,0.518,0.518,0.518,0.517,0.517,0.517,0.517,0.517,0.517,0.516,0.516,0.516,0.516,0.516,0.516,0.516,0.516,0.516,0.516,0.516,0.516,0.516,0.516,0.516,0.516,0.516,0.516,0.516,0.516,0.516,0.516,0.516,0.516,0.515,0.515,0.515,0.515,0.515,0.515,0.515,0.514,0.514,0.514,0.514,0.514,0.514,0.514,0.514,0.514,0.514,0.514,0.514,0.514,0.514,0.514,0.514,0.514,0.514,0.514,0.514,0.514,0.514,0.514,0.514,0.514,0.514,0.514,0.514,0.514,0.514,0.514,0.514,0.514,0.514,0.514,0.514,0.514,0.513,0.513,0.513,0.513,0.513,0.513,0.513,0.513,0.513,0.513,0.513,0.513,0.513,0.513
1.622,1.622,1.622,1.622,1.618,1.618,1.618,1.618,1.618,1.618,1.618,1.618,1.618,1.618,1.618,1.618,1.618,1.618,1.618,1.618,1.618,1.614,1.614,1.609,1.609,1.605,1.605,1.605,1.605,1.605,1.605,1.605,1.609,1.609,0,0,0,0,0,0,0,0,0,0,0,0,0,0,0,0,0,0,0,0,0,0.616,0.615,0.615,0.614,0.613,0.612,0.611,0.61,0.609,0.608,0.607,0.605,0.603,0.602,0.6,0.599,0.598,0.597,0.596,0.596,0.596,0.596,0.596,0.596,0.596,0.596,0.597,0.597,0.597,0.597,0.597,0.597,0.597,0.597,0.596,0.595,0.595,0.594,0.593,0.593,0.593,0.593,0.593,0.593,0.593,0.593,0.593,0.593,0.593,0.593,0.593,0.593,0.593,0.592,0.592,0.592,0.591,0.591,0.591,0.591,0.591,0.591,0.591,0.591,0.592,0.592,0.592,0.593,0.593,0.593,0.594,0.594,0.595,0.595,0.595,0.595,0.595,0.595,0.595,0.595,0.595,0.595,0.595,0.595,0.595,0.594,0.594,0.593,0.592,0.589,0.587,0.584,0.581,0.577,0.573,0.569,0.566,0.564,0.561,0.559,0.558,0.557,0.556,0.556,0.555,0.555,0.554,0.554,0.554,0.554,0.553,0.554,0.554,0.554,0.554,0.554,0.554,0.553,0.553,0.553,0.552,0.552,0.552,0.551,0.55,0.55,0.55,0.55,0.549,0.549,0,0,0,0,0,0,0,0,0,0.465,0.465,0.466,0.465,0.466,0.466,0.466,0.466,0.466,0.465,0.465,0.465,0.465,0.465,0.465,0.465,0.465,0.465,0.465,0.465,0.465,0.465,0.465,0.465,0.465,0.465,0.465,0.465,0.465,0.465,0.465,0.465,0.465,0.465,0.465,0.466,0.466,0.466,0.465,0.466,0.465,0.465,0.464,0.464,0.464,0.463,0.463,0.463,0.463,0.463,0.463,0.463,0.463,0.463,0.463,0.463,0.463,0.463,0.463,0.462,0.462,0.462,0.461,0.461,0.461,0.46,0.46,0,0.46,0.46,0.46,0.46,0.46,0.461,0.461,0.461,0.461,0.461,0.461,0.461,0.462,0.461,0.461,0.461,0.461,0.461,0.461,0.46,0.46,0,0,0.457,0.457,0,0,0,0,0,0,0,0.543,0.543,0,0,0,0,0.542,0.542,0.542,0.541,0.541,0.541,0.541,0.541,0.541,0.54,0.54,0.54,0.54,0.539,0.539,0.539,0.538,0.538,0.538,0.537,0.537,0.537,0.537,0.536,0.536,0.536,0.535,0.536,0.535,0.535,0.535,0.535,0.536,0.536,0.536,0.536,0.536,0.536,0.536,0.536,0.536,0.536,0.536,0.535,0.535,0.535,0.535,0.535,0.535,0.535,0.535,0.534,0.534,0.534,0.534,0.533,0.533,0.533,0.533,0.533,0.533,0.533,0.533,0.533,0.533,0.534,0.534,0.534,0.534,0.534,0.534,0.534,0.534,0.534,0.534,0.534,0.534,0.533,0.533,0.532,0.532,0.531,0.531,0.53,0.53,0.53,0.53,0.53,0.533,0.537,0,0,0.573,0.578,0.582,0.583,0.583,0.58,0.577,0.575,0.571,0.568,0.565,0.561,0.557,0.554,0.55,0.546,0.542,0.538,0.536,0.534,0.532,0.531,0.53,0.53,0.529,0.528,0.528,0.527,0.527,0.526,0.526,0.525,0.525,0.524,0.523,0.523,0.522,0.521,0.521,0.52,0.52,0.519,0.519,0.518,0.518,0.518,0.518,0.518,0.517,0.517,0.517,0.517,0.517,0.517,0.517,0.517,0.517,0.517,0.517,0.517,0.517,0.517,0.517,0.516,0.516,0.516,0.516,0.516,0.516,0.516,0.516,0.515,0.515,0.515,0.515,0.515,0.515,0.515,0.515,0.515,0.515,0.515,0.515,0.515,0.515,0.515,0.515,0.515,0.515,0.515,0.515,0.515,0.515,0.515,0.515,0.514,0.514,0.514,0.514,0.514,0.514,0.514,0.514,0.513,0.513,0.513,0.513,0.513,0.513,0.513,0.513,0.514,0.514,0.514,0.514,0.514,0.514,0.514,0.514,0.514,0.514,0.514,0.514,0.514,0.514,0.514,0.514,0.514,0.514,0.514,0.514,0.513,0.513,0.513,0.513,0.513,0.512,0.512,0.512,0.512,0.512,0.512,0.512,0.512,0.512,0.511,0.511,0.512,0.512,0.512,0.512
1.622,1.622,1.622,1.618,1.618,1.618,1.618,1.618,1.618,1.618,1.618,1.618,1.618,1.618,1.614,1.614,1.614,1.614,1.614,1.614,1.609,1.609,1.609,1.605,1.605,1.605,1.601,1.601,1.601,1.601,1.597,1.597,1.601,1.601,1.601,0,0,0,0,0,0,0,0,0,0,0,0,0,0,0,0,0,0,0,0,0.615,0.614,0.614,0.614,0.613,0.612,0.612,0.611,0.61,0.609,0.608,0.606,0.605,0.603,0.602,0.6,0.599,0.599,0.597,0.597,0.597,0.597,0.597,0.597,0.597,0.597,0.598,0.598,0.598,0.598,0.598,0.598,0.597,0.597,0.596,0.596,0.595,0.595,0.594,0.594,0.594,0.594,0.595,0.595,0.595,0.595,0.595,0.595,0.595,0.595,0.595,0.595,0.594,0.593,0.593,0.593,0.593,0.592,0.592,0.592,0.592,0.592,0.592,0.593,0.593,0.593,0.594,0.595,0.595,0.595,0.596,0.596,0.596,0.596,0.596,0.596,0.596,0.596,0.596,0.596,0.596,0.596,0.596,0.595,0.595,0.595,0.594,0.593,0.591,0.588,0.586,0.582,0.578,0.574,0.57,0.566,0.564,0.56,0.558,0.557,0.556,0.555,0.555,0.554,0.554,0.553,0.553,0.553,0.553,0.553,0.553,0.553,0.553,0.553,0.553,0.553,0.553,0.552,0.552,0.552,0.551,0.551,0.551,0.55,0.549,0.549,0.548,0.548,0.548,0.548,0.548,0,0,0,0,0,0,0,0,0.465,0.465,0.465,0.465,0.465,0.465,0.465,0.465,0.465,0.465,0.465,0.464,0.465,0.464,0.464,0.464,0.464,0.464,0.464,0.464,0.464,0.464,0.464,0.464,0.464,0.464,0.464,0.464,0.464,0.464,0.464,0.464,0.464,0.465,0.465,0.465,0.465,0.465,0.465,0.465,0.465,0.464,0.464,0.463,0.463,0.463,0.462,0.462,0.462,0.462,0.462,0.462,0.462,0.462,0.462,0.462,0.462,0.462,0.462,0.462,0.461,0.461,0.461,0.461,0.46,0.46,0.46,0.459,0.459,0.459,0.46,0.46,0.46,0.46,0.46,0.461,0.46,0.461,0.461,0.461,0.461,0.461,0.461,0.46,0.46,0.46,0.46,0.46,0.459,0.458,0.458,0.457,0.456,0.455,0.454,0.454,0,0,0,0,0,0,0,0,0,0,0,0,0.541,0.541,0.541,0.541,0.541,0.541,0.541,0.54,0.54,0.54,0.54,0.539,0.539,0.539,0.538,0.538,0.537,0.537,0.537,0.536,0.536,0.536,0.535,0.535,0.534,0.534,0.535,0.534,0.534,0.534,0.534,0.534,0.534,0.534,0.534,0.534,0.534,0.534,0.534,0.534,0.534,0.534,0.534,0.534,0.534,0.533,0.533,0.533,0.533,0.533,0.533,0.533,0.533,0.532,0.532,0.532,0.532,0.532,0.532,0.532,0.532,0.532,0.532,0.532,0.533,0.533,0.533,0.533,0.533,0.533,0.533,0.533,0.533,0.533,0.533,0.533,0.532,0.532,0.531,0.531,0.53,0.53,0.53,0.529,0.529,0.53,0.532,0.537,0.544,0,0.566,0.572,0.577,0.578,0.578,0.576,0.574,0.571,0.567,0.564,0.56,0.556,0.553,0,0.546,0.543,0.539,0.536,0.534,0.533,0.532,0.53,0.53,0.529,0.528,0.527,0.527,0.526,0.526,0.525,0.525,0.524,0.523,0.523,0.522,0.521,0.521,0.52,0.52,0.519,0.518,0.518,0.518,0.518,0.517,0.517,0.517,0.516,0.516,0.516,0.516,0.516,0.516,0.516,0.516,0.516,0.516,0.516,0.516,0.516,0.515,0.515,0.515,0.515,0.515,0.515,0.515,0.515,0.515,0.515,0.515,0.515,0.515,0.515,0.514,0.514,0.514,0.514,0.514,0.514,0.514,0.514,0.514,0.514,0.514,0.514,0.514,0.514,0.514,0.514,0.514,0.514,0.514,0.514,0.514,0.514,0.514,0.514,0.513,0.513,0.513,0.513,0.513,0.513,0.513,0.513,0.513,0.513,0.513,0.513,0.513,0.513,0.513,0.513,0.513,0.513,0.514,0.514,0.514,0.514,0.514,0.514,0.514,0.514,0.514,0.514,0.513,0.513,0.513,0.513,0.513,0.513,0.512,0.512,0.512,0.512,0.511,0.511,0.511,0.511,0.511,0.511,0.511,0.511,0.511,0.511,0.511,0.511,0.511,0.511,0.511
1.618,1.618,1.618,1.618,1.618,1.618,1.618,1.618,1.618,1.618,1.618,1.614,1.614,1.614,1.614,1.609,1.609,1.609,1.609,1.609,1.609,1.609,1.605,1.601,1.601,1.601,1.597,1.597,1.597,1.593,1.597,1.593,1.593,1.593,1.597,0,0,0,0,0,0,0,0,0,0,0,0,0,0,0,0,0,0,0,0,0.615,0.614,0.614,0.613,0.612,0.612,0.612,0.611,0.611,0.609,0.609,0.608,0.606,0.605,0.603,0.602,0.6,0.6,0.599,0.599,0.598,0.598,0.598,0.598,0.598,0.599,0.599,0.599,0.599,0.599,0.599,0.598,0.598,0.597,0.597,0.596,0.596,0.595,0.595,0.595,0.595,0.595,0.595,0.595,0.596,0.596,0.596,0.596,0.596,0.596,0.596,0.596,0.595,0.595,0.595,0.594,0.594,0.593,0.593,0.593,0.593,0.593,0.594,0.594,0.595,0.595,0.595,0.596,0.596,0.597,0.597,0.597,0.597,0.597,0.597,0.597,0.597,0.597,0.597,0.597,0.597,0.596,0.596,0.596,0.595,0.595,0.593,0.592,0.589,0.587,0.583,0.578,0.574,0.57,0.566,0.563,0.56,0.557,0.556,0.555,0.554,0.554,0.553,0.553,0.553,0.552,0.552,0.552,0.552,0.552,0.552,0.552,0.552,0.552,0.552,0.552,0.552,0.551,0.551,0.551,0.55,0.55,0.55,0.549,0.548,0.548,0.548,0.547,0.547,0.547,0,0,0,0,0,0,0,0.464,0,0.464,0.464,0.464,0.464,0.464,0.464,0.464,0.464,0.464,0.464,0.464,0.464,0.464,0.464,0.464,0.463,0.463,0.463,0.463,0.464,0.464,0.464,0.464,0.464,0.464,0.464,0.464,0.464,0.464,0.464,0.464,0.464,0.464,0.464,0.464,0.464,0.465,0.465,0.465,0.465,0.464,0.464,0.463,0.463,0.462,0.462,0.461,0.461,0.461,0.461,0.461,0.461,0.461,0.462,0.462,0.462,0.462,0.462,0.461,0.461,0.461,0.461,0.46,0.46,0.46,0.459,0.459,0.459,0.459,0.459,0.459,0.459,0.459,0.46,0.46,0.46,0.46,0.46,0.46,0.46,0.46,0.46,0.46,0.46,0.459,0.459,0.459,0.459,0.458,0.458,0.457,0.457,0.456,0.455,0.454,0.454,0.453,0,0,0,0.452,0.452,0.452,0.453,0,0,0,0,0.541,0.541,0.541,0.541,0.541,0.541,0.54,0.54,0.54,0.54,0.539,0.539,0.539,0.539,0.538,0.538,0.537,0.536,0.536,0.536,0.536,0.535,0.535,0.534,0.534,0.533,0.534,0.533,0.533,0.533,0.533,0.533,0.533,0.533,0.533,0.533,0.533,0.533,0.533,0.533,0.533,0.532,0.532,0.532,0.532,0.532,0.532,0.532,0.532,0.532,0.532,0.532,0.532,0.531,0.531,0.531,0.531,0.531,0.531,0.531,0.531,0.531,0.531,0.531,0.531,0.531,0.531,0.532,0.532,0.532,0.532,0.532,0.532,0.532,0.531,0.531,0.531,0.531,0.53,0.53,0.53,0.529,0.529,0.529,0.528,0.529,0.532,0.535,0.543,0.55,0,0.563,0.568,0.57,0.571,0.57,0.568,0.566,0.563,0.56,0.556,0.552,0.549,0.547,0.543,0.54,0.537,0.535,0.533,0.531,0.53,0.53,0.529,0.528,0.527,0.526,0.526,0.525,0.525,0.524,0.523,0.523,0.522,0.521,0.521,0.52,0.519,0.519,0.518,0.518,0.518,0.517,0.517,0.516,0.516,0.516,0.516,0.516,0.515,0.515,0.515,0.515,0.515,0.515,0.515,0.515,0.515,0.515,0.515,0.515,0.515,0.514,0.514,0.514,0.514,0.514,0.514,0.514,0.514,0.514,0.514,0.514,0.514,0.514,0.514,0.514,0.514,0.514,0.514,0.514,0.514,0.514,0.514,0.514,0.514,0.514,0.514,0.514,0.514,0.514,0.513,0.513,0.513,0.513,0.513,0.513,0.513,0.513,0.513,0.513,0.513,0.512,0.512,0.512,0.512,0.512,0.512,0.512,0.512,0.513,0.513,0.513,0.513,0.513,0.513,0.513,0.513,0.513,0.513,0.513,0.513,0.513,0.513,0.513,0.513,0.513,0.513,0.513,0.513,0.512,0.512,0.512,0.512,0.511,0.511,0.511,0.511,0.511,0.51,0.51,0.51,0.51,0.51,0.51,0.51,0.51,0.51,0.51,0.51,0.51,0.51
1.618,1.618,1.618,1.618,1.618,1.618,1.618,1.618,1.614,1.614,1.614,1.614,1.609,1.609,1.609,1.609,1.609,1.609,1.605,1.605,1.605,1.601,1.601,1.601,1.597,1.593,1.593,1.593,1.593,1.589,1.593,1.589,1.593,1.589,1.589,1.589,0,0,0,0,0,0,0,0,0,0,0,0,0,0,0,0,0,0,0,0,0,0.612,0.612,0.612,0.611,0.611,0.611,0.611,0.61,0.609,0.608,0.606,0.606,0.605,0.603,0.602,0.601,0.6,0.599,0.599,0.599,0.599,0.599,0.599,0.599,0.599,0.599,0.599,0.599,0.599,0.599,0.599,0.598,0.597,0.597,0.597,0.596,0.596,0.596,0.596,0.596,0.596,0.596,0.596,0.596,0.597,0.597,0.597,0.597,0.597,0.596,0.596,0.596,0.596,0.595,0.595,0.595,0.595,0.595,0.595,0.595,0.595,0.595,0.596,0.596,0.596,0.597,0.597,0.598,0.599,0.599,0.598,0.599,0.599,0.599,0.598,0.598,0.598,0.597,0.597,0.597,0.597,0.596,0.595,0.594,0.593,0.591,0.588,0.584,0.579,0,0.57,0.566,0.562,0.559,0.557,0.555,0.554,0.553,0.553,0.552,0.552,0.552,0.551,0.551,0.551,0.551,0.551,0.551,0.551,0.551,0.551,0.551,0.551,0.551,0.551,0.551,0.55,0.55,0.549,0.549,0.548,0.548,0.547,0.547,0.547,0.547,0.546,0.546,0,0,0,0,0,0,0,0.463,0.463,0.463,0.463,0.463,0.464,0.464,0.464,0.464,0.464,0.464,0.464,0.463,0.463,0.463,0.463,0.463,0.463,0.463,0.463,0.463,0.463,0.463,0.463,0.463,0.463,0.463,0.463,0.463,0.463,0.463,0.463,0.463,0.463,0.463,0.463,0.463,0.464,0.464,0.464,0.464,0.464,0.464,0.463,0.463,0.462,0.461,0.461,0.461,0.46,0.46,0.46,0.46,0.46,0.461,0.461,0.461,0.461,0.461,0.461,0.461,0.461,0.46,0.46,0.46,0.459,0.459,0.458,0.458,0.458,0.458,0.458,0.458,0.458,0.458,0.459,0.459,0.459,0.459,0.459,0.46,0.46,0.459,0.459,0.459,0.459,0.458,0.458,0.458,0.458,0.458,0.457,0.457,0.456,0.456,0.455,0.454,0.453,0.453,0.452,0.452,0.452,0.452,0.452,0.453,0.453,0.453,0.453,0,0,0,0.541,0.541,0.541,0.541,0.54,0.54,0.54,0.54,0.54,0.539,0.539,0.539,0.538,0.538,0.537,0.536,0.536,0.536,0.536,0.535,0.534,0.534,0.533,0.533,0.533,0.533,0.532,0.532,0.532,0.532,0.532,0.532,0.532,0.532,0.532,0.532,0.532,0.532,0.532,0.532,0.532,0.532,0.531,0.531,0.531,0.531,0.531,0.531,0.531,0.531,0.531,0.531,0.53,0.53,0.53,0.53,0.53,0.53,0.53,0.53,0.53,0.53,0.53,0.53,0.53,0.53,0.53,0.53,0.531,0.531,0.531,0.53,0.53,0.53,0.53,0.53,0.53,0.529,0.529,0.528,0.528,0.528,0.528,0.528,0.528,0.53,0.533,0.538,0.544,0,0,0.559,0.562,0.564,0.564,0.563,0.56,0.558,0.555,0.552,0.548,0.546,0.543,0.54,0.538,0.536,0.534,0.532,0.531,0.53,0.529,0.528,0.527,0.526,0.525,0.525,0.524,0.524,0.523,0.522,0.521,0.521,0.52,0.519,0.519,0.518,0.518,0.517,0.517,0.516,0.516,0.516,0.515,0.515,0.515,0.515,0.515,0.514,0.514,0.514,0.514,0.514,0.514,0.514,0.514,0.514,0.514,0.514,0.514,0.514,0.514,0.514,0.514,0.514,0.514,0.514,0.514,0.514,0.514,0.513,0.513,0.513,0.513,0.513,0.513,0.513,0.513,0.513,0.513,0.513,0.513,0.513,0.513,0.513,0.513,0.513,0.513,0.512,0.512,0.512,0.512,0.512,0.512,0.512,0.512,0.512,0.512,0.512,0.512,0.512,0.512,0.512,0.512,0.512,0.512,0.512,0.512,0.512,0.512,0.512,0.512,0.512,0.512,0.513,0.513,0.513,0.513,0.513,0.513,0.513,0.513,0.513,0.512,0.512,0.512,0.512,0.512,0.512,0.511,0.511,0.511,0.511,0.511,0.51,0.51,0.51,0.51,0.509,0.509,0.509,0.509,0.509,0.509,0.509,0.509,0.509,0.509,0.509,0.509,0.509
1.618,1.618,1.618,1.618,1.618,1.614,1.614,1.614,1.614,1.614,1.609,1.609,1.609,1.609,1.605,1.605,1.605,1.601,1.601,1.601,1.601,1.601,1.597,1.593,1.593,1.593,1.589,1.589,1.589,1.585,1.585,1.585,1.585,1.585,1.585,1.589,0,0,0,0,0,0,0,0,0,0,0,0,0,0,0,0,0,0,0,0,0,0.611,0.611,0.611,0.611,0.611,0.61,0.61,0.609,0.609,0.608,0.607,0.606,0.605,0.604,0.603,0.602,0.601,0.6,0.6,0.6,0.6,0.6,0.6,0.6,0.6,0.6,0.6,0.599,0.599,0.599,0.599,0.599,0.598,0.598,0.597,0.597,0.597,0.597,0.597,0.597,0.597,0.597,0.597,0.597,0.597,0.598,0.597,0.598,0.597,0.597,0.597,0.597,0.597,0.596,0.596,0.596,0.596,0.596,0.596,0.596,0.596,0.596,0.597,0.597,0.597,0.598,0.598,0.599,0.599,0.599,0.599,0.599,0.599,0.599,0.599,0.599,0.599,0.598,0.598,0.597,0.597,0.596,0.595,0.593,0.592,0.589,0.586,0.581,0.576,0.571,0.567,0.563,0.559,0.556,0.555,0.553,0.553,0.552,0.552,0.551,0.551,0.55,0.55,0.55,0.55,0.55,0.55,0.55,0.55,0.55,0.55,0.55,0.55,0.55,0.55,0.55,0.549,0.549,0.548,0.548,0.548,0.547,0.547,0.546,0.546,0.546,0.546,0,0,0,0,0,0,0,0.463,0.463,0.463,0.463,0.463,0.463,0.463,0.463,0.463,0.463,0.463,0.463,0.463,0.463,0.463,0.463,0.462,0.462,0.462,0.462,0.462,0.462,0.462,0.462,0.462,0.462,0.462,0.462,0.462,0.462,0.462,0.462,0.462,0.462,0.462,0.462,0.462,0.462,0.463,0.463,0.463,0.463,0.463,0.463,0.462,0.462,0.461,0.461,0.46,0.46,0.459,0.459,0.459,0.46,0.459,0.46,0.46,0.46,0.46,0.46,0.46,0.46,0.46,0.46,0.459,0.459,0.458,0.458,0.457,0.457,0.457,0.457,0.457,0.457,0.457,0.457,0.458,0.458,0.458,0.458,0.458,0.459,0.458,0.458,0.458,0.458,0.458,0.457,0.457,0.457,0.457,0.457,0.457,0.456,0.456,0.455,0.454,0.454,0.453,0.453,0.452,0.452,0.452,0.452,0.452,0.453,0.453,0.453,0.453,0.453,0,0,0,0.541,0.541,0.54,0.541,0.54,0.54,0.54,0.54,0.539,0.539,0.538,0.538,0.538,0.537,0.536,0.536,0.536,0.535,0.535,0.534,0.533,0.533,0.532,0.532,0.532,0.532,0.531,0.531,0.531,0.531,0.531,0.531,0.531,0.531,0.531,0.531,0.531,0.531,0.531,0.531,0.53,0.53,0.53,0.53,0.53,0.53,0.53,0.53,0.53,0.53,0.53,0.53,0.529,0.529,0.529,0.529,0.529,0.529,0.529,0.529,0.529,0.529,0.529,0.529,0.529,0.53,0.53,0.53,0.53,0.53,0.53,0.529,0.529,0.529,0.529,0.528,0.528,0.528,0.528,0.527,0.527,0.527,0.527,0.527,0.528,0.53,0.534,0.538,0,0,0.551,0.554,0.556,0.557,0.557,0.555,0.553,0.551,0.548,0.546,0.543,0.541,0.539,0.536,0.535,0.533,0.531,0.53,0.529,0.528,0.527,0.526,0.525,0.525,0.524,0.523,0.522,0.521,0.521,0.52,0.519,0.519,0.518,0.518,0.517,0.517,0.516,0.516,0.515,0.515,0.515,0.514,0.514,0.514,0.514,0.514,0.514,0.514,0.514,0.514,0.513,0.513,0.513,0.513,0.513,0.513,0.513,0.513,0.513,0.513,0.513,0.513,0.513,0.513,0.513,0.513,0.513,0.513,0.513,0.513,0.513,0.513,0.513,0.513,0.512,0.512,0.512,0.512,0.512,0.512,0.512,0.512,0.512,0.512,0.512,0.511,0.511,0.511,0.511,0.511,0.511,0.511,0.511,0.511,0.511,0.511,0.511,0.511,0.511,0.511,0.511,0.511,0.511,0.512,0.512,0.511,0.511,0.511,0.511,0.512,0.512,0.512,0.512,0.512,0.512,0.512,0.512,0.512,0.512,0.512,0.512,0.511,0.511,0.511,0.511,0.511,0.511,0.511,0.511,0.51,0.51,0.51,0.51,0.509,0.509,0.509,0.509,0.509,0.509,0.509,0.508,0.508,0.508,0.508,0.508,0.508,0.508,0.508,0.508
1.614,1.614,1.614,1.614,1.614,1.614,1.609,1.609,1.609,1.609,1.609,1.609,1.605,1.605,1.601,1.601,1.601,1.601,1.601,1.597,1.597,1.597,1.593,1.593,1.589,1.589,1.585,1.585,1.581,1.581,1.581,1.581,1.581,1.581,1.581,1.581,0,0,0,0,0,0,0,0,0,0,0,0,0,0,0,0,0,0,0,0,0,0.61,0.611,0.611,0.61,0.61,0.609,0.609,0.609,0.609,0.608,0.608,0.606,0.606,0.605,0.604,0.603,0.602,0.602,0.601,0.601,0.601,0.6,0.6,0.6,0.6,0.6,0.6,0.6,0.6,0.599,0.599,0.599,0.599,0.599,0.598,0.598,0.598,0.598,0.598,0.598,0.597,0.597,0.598,0.598,0.598,0.598,0.598,0.599,0.599,0.599,0.599,0.598,0.597,0.597,0.597,0.597,0.596,0.596,0.597,0.596,0.596,0.597,0.597,0.597,0.597,0.598,0.599,0.599,0.599,0.599,0.599,0.599,0.599,0.599,0.599,0.599,0.599,0.598,0.598,0.597,0.596,0.595,0.593,0.592,0.591,0.587,0.582,0.578,0.573,0,0.563,0.559,0.556,0.554,0.553,0.552,0.551,0.551,0.55,0.55,0.55,0.549,0.549,0.549,0.549,0.549,0.549,0.549,0.549,0.549,0.549,0.549,0.549,0.549,0.549,0.549,0.548,0.548,0.547,0.547,0.547,0.547,0.547,0.546,0.546,0.546,0.546,0,0,0,0,0,0,0,0,0.463,0.462,0.462,0.462,0.462,0.462,0.462,0.462,0.462,0.462,0.462,0.462,0.462,0.462,0.462,0.462,0.461,0.461,0.461,0.461,0.461,0.461,0.461,0.461,0.461,0.461,0.461,0.461,0.461,0.461,0.461,0.461,0.461,0.461,0.461,0.461,0.461,0.462,0.462,0.462,0.462,0.462,0.462,0.461,0.461,0.46,0.46,0.459,0.458,0.458,0.458,0.458,0.458,0.459,0.459,0.459,0.46,0.46,0.46,0.46,0.46,0.459,0.459,0.459,0.458,0.458,0.457,0.457,0.457,0.457,0.456,0.456,0.457,0.457,0.457,0.457,0.457,0.457,0.458,0.458,0.458,0.457,0.457,0.457,0.457,0.457,0.456,0.456,0.457,0.457,0.457,0.456,0.456,0.455,0.455,0.454,0.453,0.452,0.452,0.452,0.452,0.452,0.452,0.452,0.452,0.453,0.453,0.452,0.453,0.452,0,0,0,0,0,0.541,0.541,0.54,0.54,0.54,0,0,0,0,0.537,0.536,0.536,0.536,0.535,0.535,0.534,0.534,0.533,0.533,0.532,0.532,0.531,0.531,0.531,0.53,0.53,0.53,0.53,0.531,0.531,0.53,0.53,0.53,0.53,0.53,0.53,0.53,0.53,0.53,0.53,0.53,0.53,0.53,0.53,0.53,0.529,0.529,0.529,0.529,0.528,0.528,0.528,0.528,0.528,0.527,0.527,0.528,0.528,0.528,0.528,0.528,0.528,0.528,0.528,0.528,0.528,0.528,0.528,0.528,0.527,0.527,0.527,0.527,0.527,0.526,0.526,0.526,0.526,0.526,0.526,0.526,0.526,0.528,0,0,0.537,0.541,0,0,0.549,0.551,0.551,0.55,0.549,0.547,0.545,0.543,0.54,0.539,0.537,0.535,0.533,0.532,0.531,0.53,0.529,0.528,0.526,0.525,0.525,0.524,0.523,0.522,0.521,0.52,0.52,0.519,0.518,0.518,0.517,0.516,0.516,0.515,0.515,0.515,0.514,0.514,0.514,0.514,0.514,0.513,0.513,0.513,0.513,0.513,0.513,0.513,0.512,0.512,0.512,0.512,0.512,0.512,0.512,0.512,0.512,0.512,0.512,0.512,0.512,0.512,0.512,0.512,0.512,0.512,0.512,0.512,0.512,0.512,0.512,0.512,0.512,0.512,0.512,0.511,0.511,0.511,0.511,0.511,0.511,0.511,0.511,0.511,0.511,0.511,0.511,0.511,0.511,0.51,0.51,0.51,0.51,0.51,0.511,0.511,0.511,0.511,0.511,0.511,0.511,0.511,0.511,0.511,0.511,0.511,0.511,0.511,0.511,0.511,0.511,0.511,0.511,0.511,0.511,0.511,0.511,0.511,0.511,0.511,0.511,0.511,0.511,0.51,0.51,0.51,0.51,0.51,0.509,0.509,0.509,0.509,0.509,0.508,0.508,0.508,0.508,0.508,0.507,0.507,0.507,0.507,0.507,0.507,0.507,0.507,0.508
1.609,1.609,1.609,1.609,1.609,1.609,1.609,1.609,1.609,1.605,1.605,1.601,1.601,1.601,1.601,1.597,1.597,1.597,1.593,1.593,1.593,1.593,1.589,1.589,1.589,1.585,1.585,1.581,1.581,1.581,1.576,1.576,1.581,1.581,1.576,1.576,1.576,0,0,0,0,0,0,0,0,0,0,0,0,0,0,0,0,0,0,0,0,0.609,0.609,0.609,0.609,0.609,0.609,0.609,0.608,0.608,0.608,0.607,0.606,0.606,0.605,0.605,0.604,0.603,0.603,0.602,0.602,0.602,0.601,0.601,0.601,0.601,0.601,0.6,0.6,0.6,0.6,0.6,0.599,0.599,0.599,0.599,0.599,0.599,0.599,0.599,0.599,0.599,0.598,0.599,0.599,0.599,0.599,0.599,0.599,0.599,0.599,0.599,0.598,0.598,0.598,0.597,0.597,0.597,0.597,0.597,0.597,0.597,0.597,0.597,0.597,0.597,0.598,0.599,0.599,0.599,0.599,0.599,0.599,0.599,0.599,0.599,0.599,0.598,0.598,0.597,0.597,0.596,0.594,0.592,0.591,0.588,0.584,0.579,0.574,0,0.564,0.559,0.556,0.554,0.552,0.551,0.55,0.55,0.549,0.549,0.549,0.549,0.549,0.548,0.548,0.548,0.548,0.548,0.548,0.548,0.548,0.548,0.548,0.548,0.548,0.548,0.548,0.548,0.547,0.547,0.547,0.547,0.547,0.546,0.546,0.546,0.546,0.546,0,0,0,0,0,0,0,0,0.462,0.462,0.462,0.461,0.462,0.462,0.461,0.461,0.461,0.461,0.461,0.461,0.461,0.461,0.461,0.461,0.461,0.461,0.461,0.46,0.46,0.46,0.46,0.46,0.46,0.461,0.461,0.461,0.461,0.461,0.461,0.46,0.46,0.46,0.46,0.46,0.46,0.46,0.461,0.461,0.461,0.461,0.461,0.46,0.459,0.459,0.458,0.458,0.457,0.457,0.458,0.458,0.458,0.458,0.458,0.459,0.459,0.459,0.459,0.459,0.458,0.459,0.458,0.458,0.457,0.457,0.457,0.456,0.456,0.456,0.456,0.456,0.456,0.456,0.456,0.456,0.457,0.457,0.457,0.457,0.457,0.457,0.456,0.456,0.456,0.456,0.456,0.456,0.456,0.456,0.456,0.456,0.455,0.455,0.454,0.454,0.453,0.452,0.452,0.452,0.451,0.451,0.452,0.452,0.452,0.452,0.452,0.452,0,0,0,0,0,0,0,0,0,0,0,0,0,0,0,0,0.537,0.536,0.536,0.535,0.535,0.535,0.534,0.533,0.532,0.532,0.532,0.531,0.531,0.531,0.531,0.53,0.53,0.53,0.53,0.53,0.53,0.53,0.53,0.53,0.53,0.53,0.53,0.53,0.53,0.529,0.529,0.529,0.529,0.529,0.529,0.529,0.529,0.528,0.528,0.528,0.528,0.527,0.527,0.527,0.527,0.526,0.526,0.526,0.527,0.526,0.527,0.527,0.527,0.527,0.527,0.527,0.527,0.527,0.526,0.526,0.526,0.525,0.526,0.525,0.525,0.525,0.525,0.525,0.525,0.525,0.525,0.525,0.525,0.526,0.528,0.53,0.533,0.536,0.539,0.541,0.543,0.545,0.546,0.545,0.544,0.543,0.541,0.539,0.538,0.536,0.535,0.534,0.532,0.531,0.53,0.529,0.528,0.527,0.526,0.525,0.524,0.523,0.522,0.521,0.52,0.519,0.518,0.518,0.517,0.516,0.516,0.515,0.515,0.514,0.514,0.514,0.514,0.513,0.513,0.513,0.513,0.512,0.512,0.512,0.512,0.512,0.512,0.512,0.512,0.512,0.511,0.511,0.511,0.511,0.511,0.511,0.511,0.511,0.511,0.511,0.511,0.511,0.511,0.511,0.511,0.511,0.511,0.511,0.511,0.511,0.511,0.511,0.511,0.511,0.511,0.511,0.511,0.511,0.51,0.51,0.51,0.51,0.51,0.51,0.51,0.51,0.509,0.509,0.509,0.509,0.509,0.509,0.509,0.509,0.509,0.51,0.51,0.51,0.51,0.51,0.51,0.51,0.51,0.51,0.511,0.511,0.511,0.511,0.511,0.511,0.511,0.511,0.511,0.511,0.51,0.51,0.51,0.51,0.51,0.51,0.51,0.51,0.51,0.51,0.509,0.509,0.509,0.509,0.509,0.509,0.508,0.508,0.508,0.507,0.507,0.507,0.507,0.507,0.507,0.506,0.506,0.506,0.506,0.506,0.506,0.506,0.507
1.605,1.605,1.605,1.605,1.605,1.605,1.605,1.605,1.605,1.601,1.601,1.601,1.597,1.597,1.597,1.593,1.593,1.593,1.593,1.593,1.589,1.589,1.589,1.585,1.585,1.581,1.581,1.581,1.576,1.576,1.576,1.576,1.572,1.576,1.576,1.576,0,0,0,0,0,0,0,0,0,0,0,0,0,0,0,0,0,0,0,0,0.609,0.608,0.608,0.608,0.608,0.608,0.608,0.608,0.608,0.608,0.607,0.607,0.606,0.606,0.605,0.605,0.604,0.604,0.603,0.603,0.602,0.602,0.602,0.602,0.602,0.602,0.602,0.601,0.6,0.6,0.6,0.6,0.6,0.599,0.599,0.599,0.599,0.599,0.599,0.599,0.599,0.599,0.599,0.599,0.599,0.599,0.599,0.599,0.599,0.599,0.599,0.599,0.599,0.598,0.598,0.598,0.598,0.597,0.597,0.597,0.597,0.597,0.597,0.597,0.597,0.598,0.597,0.598,0.598,0.599,0.599,0.599,0.599,0.599,0.599,0.599,0.598,0.597,0.597,0.597,0.596,0.595,0.594,0,0.589,0.586,0.581,0.576,0.571,0,0.561,0.557,0.553,0.551,0.55,0.55,0.549,0.548,0.548,0.548,0.548,0.547,0.547,0.547,0.547,0.547,0.547,0.547,0.547,0.548,0.548,0.547,0.547,0.547,0.548,0.547,0.547,0.547,0.547,0.547,0.547,0.547,0.547,0.546,0.546,0.546,0.546,0.546,0.546,0,0,0,0,0,0,0,0.461,0.461,0.461,0.461,0.461,0.461,0.461,0.461,0.46,0.46,0.461,0.46,0.46,0.46,0.461,0.46,0.46,0.46,0.46,0.459,0.459,0.459,0.459,0.459,0.46,0.46,0.46,0.46,0.46,0.46,0.46,0.459,0.459,0.459,0.459,0.459,0.46,0.46,0.46,0.46,0.46,0.459,0.459,0.459,0.458,0.458,0.458,0.457,0.457,0.457,0.457,0.457,0.457,0.457,0.458,0.458,0.458,0.458,0.458,0.458,0.458,0.458,0.458,0.457,0.457,0.457,0.456,0.456,0.455,0.455,0.455,0.455,0.455,0.456,0.456,0.456,0.456,0.456,0.456,0.456,0.456,0.456,0.456,0.455,0.455,0.455,0.455,0.455,0.455,0.455,0.455,0.455,0.455,0.454,0.453,0.453,0.452,0.452,0.451,0.451,0.451,0.451,0.451,0.451,0.451,0.452,0.452,0.452,0.452,0,0,0.452,0,0,0,0,0,0,0,0,0,0,0,0,0,0.536,0.536,0.535,0.535,0.535,0.534,0.533,0.532,0.532,0.532,0.531,0.531,0.531,0.53,0.53,0.53,0.53,0.53,0.53,0.53,0.53,0.53,0.53,0.53,0.53,0.529,0.529,0.529,0.529,0.529,0.529,0.529,0.529,0.528,0.528,0.528,0.528,0.527,0.527,0.527,0.526,0.526,0.526,0.526,0.525,0.525,0.525,0.525,0.526,0.526,0.526,0.525,0.525,0.525,0.525,0.525,0.525,0.525,0.525,0.524,0.524,0.524,0.524,0.524,0.524,0.524,0.525,0.525,0.525,0.525,0.525,0.525,0.525,0.526,0.528,0.53,0.532,0.534,0.536,0.538,0.539,0.54,0.54,0.54,0.539,0.538,0.536,0.536,0.535,0.533,0.532,0.531,0.53,0.529,0.528,0.527,0.526,0.525,0.524,0.523,0.522,0.521,0.52,0.519,0.518,0.518,0.517,0.516,0.515,0.515,0.514,0.514,0.514,0.513,0.513,0.513,0.512,0.512,0.512,0.512,0.511,0.511,0.511,0.511,0.511,0.511,0.511,0.511,0.511,0.511,0.511,0.511,0.511,0.511,0.511,0.511,0.51,0.51,0.51,0.51,0.51,0.51,0.51,0.51,0.511,0.51,0.51,0.511,0.51,0.51,0.51,0.51,0.51,0.51,0.51,0.51,0.51,0.509,0.509,0.509,0.509,0.509,0.509,0.509,0.509,0.509,0.509,0.509,0.509,0.508,0.508,0.509,0.509,0.509,0.509,0.509,0.509,0.509,0.509,0.509,0.509,0.509,0.509,0.51,0.51,0.51,0.51,0.51,0.51,0.51,0.51,0.509,0.509,0.509,0.509,0.509,0.509,0.509,0.509,0.509,0.509,0.509,0.509,0.509,0.509,0.508,0.508,0.508,0.508,0.508,0.507,0.507,0.507,0.507,0.506,0.506,0.506,0.506,0.506,0.506,0.506,0.506,0.506,0.506,0.506,0.506
1.601,1.601,1.601,1.601,1.601,1.601,1.601,1.601,1.601,1.597,1.597,1.597,1.597,1.593,1.593,1.593,1.593,1.589,1.589,1.589,1.589,1.589,1.585,1.585,1.581,1.581,1.581,1.576,1.576,1.576,1.572,1.572,1.572,1.572,1.572,1.572,0,0,0,0,0,0,0,0,0,0,0,0,0,0,0,0,0,0,0,0.608,0.608,0.608,0.608,0.607,0.608,0.607,0.607,0.606,0.607,0.606,0.606,0.606,0.606,0.605,0.605,0.605,0.604,0.604,0.603,0.603,0.603,0.603,0.602,0.602,0.602,0.602,0.602,0.601,0.6,0.6,0.6,0.6,0.6,0.599,0.599,0.599,0.599,0.6,0.6,0.6,0.599,0.599,0.599,0.599,0.599,0.599,0.599,0.599,0.599,0.599,0.599,0.599,0.598,0.598,0.598,0.598,0.598,0.598,0.597,0.597,0.597,0.597,0.597,0.597,0.597,0.597,0.598,0.598,0.598,0.598,0.598,0.599,0.599,0.599,0.599,0.598,0.598,0.597,0.597,0.596,0.595,0.595,0.592,0.589,0.586,0.583,0.577,0.572,0,0,0.558,0.555,0.552,0.55,0.549,0.548,0.548,0.547,0.547,0.547,0.547,0.547,0.547,0.547,0.547,0.547,0.547,0.547,0.547,0.547,0.547,0.547,0.547,0.547,0.547,0.547,0.547,0.547,0.546,0.546,0.547,0.546,0.546,0.546,0,0,0,0,0.546,0.546,0,0,0,0,0,0,0,0.461,0.46,0.46,0.46,0.46,0.46,0.46,0.46,0.46,0.46,0.46,0.46,0.46,0.459,0.459,0.459,0.459,0.458,0.458,0.458,0.458,0.458,0.458,0.458,0.458,0.459,0.459,0.459,0.458,0.458,0.458,0.458,0.458,0.458,0.458,0.458,0.458,0.458,0.458,0.458,0.458,0.458,0.458,0.457,0.457,0.457,0.457,0.456,0.456,0.456,0.456,0.457,0.457,0.457,0.457,0.457,0.458,0.458,0.458,0.457,0.458,0.457,0.457,0.457,0.456,0.456,0.455,0.455,0.455,0.455,0.455,0.455,0.455,0.455,0.455,0.455,0.455,0.456,0.456,0.456,0.455,0.455,0.455,0.454,0.454,0.454,0.454,0.454,0.454,0.454,0.454,0.454,0.453,0.453,0.452,0.452,0.451,0.451,0.451,0.45,0.45,0.451,0.451,0.451,0.452,0.451,0.452,0.451,0.451,0.451,0.451,0,0,0,0.451,0.451,0.451,0.451,0.451,0,0,0.45,0.449,0.449,0,0,0,0,0,0,0,0,0,0,0,0.531,0.531,0.53,0,0,0.53,0.53,0.53,0.53,0.53,0.53,0.53,0.53,0.53,0.529,0.529,0.529,0.528,0.529,0.528,0.528,0.528,0.528,0.528,0.527,0.527,0.527,0.526,0.526,0.525,0.525,0.525,0.525,0.524,0.524,0.525,0.525,0.525,0.525,0.525,0.525,0.525,0.525,0.524,0.524,0.524,0.523,0.523,0.523,0.523,0.523,0.523,0.523,0.523,0.524,0.524,0.524,0.524,0.524,0.524,0.524,0.524,0.525,0.525,0.527,0.529,0.53,0.533,0.534,0.536,0.536,0.537,0.537,0.537,0.536,0.535,0.534,0.533,0.532,0.531,0.53,0.529,0.528,0.527,0.526,0.525,0.524,0.523,0.522,0.521,0.52,0.519,0.518,0.517,0.516,0.516,0.515,0.514,0.514,0.514,0.513,0.513,0.512,0.512,0.512,0.511,0.511,0.511,0.511,0.511,0.511,0.511,0.511,0.51,0.51,0.51,0.51,0.51,0.51,0.51,0.51,0.51,0.51,0.51,0.51,0.51,0.51,0.51,0.51,0.51,0.51,0.51,0.51,0.51,0.51,0.51,0.51,0.51,0.51,0.51,0.509,0.509,0.509,0.509,0.509,0.509,0.509,0.509,0.509,0.509,0.508,0.508,0.508,0.508,0.508,0.508,0.508,0.507,0.507,0.507,0.507,0.508,0.508,0.508,0.508,0.508,0.508,0.508,0.509,0.509,0.509,0.509,0.509,0.509,0.509,0.509,0.509,0.509,0.509,0.509,0.509,0.509,0.509,0.509,0.509,0.509,0.508,0.508,0.508,0.508,0.508,0.508,0.508,0.508,0.508,0.507,0.507,0.507,0.507,0.507,0.506,0.506,0.506,0.506,0.506,0.506,0.506,0.505,0.505,0.505,0.505,0.505,0.505,0.505,0.505
1.597,1.597,1.597,1.597,1.597,1.597,1.597,1.597,1.597,1.597,1.597,1.593,1.593,1.593,1.593,1.589,1.589,1.589,1.589,1.589,1.589,1.585,1.585,1.581,1.581,1.581,1.581,1.576,1.572,1.572,1.572,1.572,1.572,1.568,1.568,1.568,0,0,0,0,0,0,0,0,0,0,0,0,0,0,0,0,0,0,0,0,0.607,0.606,0.606,0.606,0.606,0.606,0.605,0.605,0.605,0.605,0.605,0.605,0.605,0.605,0.605,0.604,0.604,0.603,0.603,0.603,0.603,0.603,0.603,0.602,0.602,0.602,0.602,0.601,0.6,0.6,0.6,0.6,0.6,0.6,0.599,0.6,0.6,0.6,0.6,0.6,0.6,0.6,0.599,0.599,0.599,0.599,0.599,0.598,0.598,0.598,0.598,0.598,0.598,0.598,0.598,0.598,0.597,0.597,0.597,0.597,0.597,0.597,0.597,0.597,0.597,0.597,0.597,0.597,0.597,0.597,0.598,0.598,0.598,0.598,0.597,0.598,0.597,0.597,0.596,0.596,0.595,0.594,0.591,0.588,0.583,0.579,0.573,0.568,0.563,0.558,0.554,0.551,0.549,0.548,0.548,0.547,0.547,0.547,0.547,0.546,0.546,0.546,0.546,0.546,0.546,0.546,0.546,0.546,0.546,0.547,0.547,0.547,0.547,0.546,0.546,0.546,0.546,0.546,0.546,0.546,0.546,0.546,0.546,0.546,0.546,0,0,0,0.546,0,0,0,0,0,0,0,0,0.46,0.459,0.459,0.459,0.459,0.459,0.459,0.458,0.458,0.459,0.458,0.459,0.458,0.458,0.458,0.458,0.458,0.457,0.457,0.457,0.457,0.457,0.457,0.458,0.457,0.458,0.458,0.458,0.458,0.457,0.457,0.457,0.457,0.457,0.456,0.456,0.456,0.457,0.457,0.457,0.457,0.457,0.457,0.457,0.456,0.456,0.456,0.456,0.456,0.456,0.456,0.456,0.456,0.456,0.457,0.457,0.457,0.457,0.457,0.457,0.457,0.457,0.456,0.456,0.456,0.455,0.455,0.455,0.454,0.454,0.454,0.454,0.455,0.455,0.455,0.455,0.455,0.455,0.455,0.455,0.455,0.454,0.454,0.454,0.454,0.453,0.453,0.453,0.453,0.453,0.453,0.453,0.452,0.452,0.451,0.451,0.451,0.45,0.45,0.45,0.45,0.451,0.451,0.451,0.451,0.451,0.451,0.451,0.451,0.451,0.451,0.45,0.451,0.451,0.451,0.451,0.45,0.45,0.451,0.45,0.45,0.449,0.449,0.448,0,0,0.448,0.448,0,0,0,0,0,0,0,0,0,0,0,0,0,0.53,0.53,0.53,0.53,0.53,0.53,0.53,0.529,0.529,0.529,0.528,0.528,0.528,0.528,0.527,0.527,0.527,0.527,0.526,0.526,0.526,0.525,0.525,0.525,0.525,0.524,0.524,0.523,0.523,0.523,0.523,0.523,0.523,0.523,0.523,0.523,0.523,0.523,0.523,0.522,0.522,0.522,0.521,0.521,0.522,0.522,0.522,0.522,0.523,0.523,0.523,0.524,0.524,0.523,0.523,0.524,0.524,0.524,0.524,0.525,0.527,0.529,0.53,0.531,0.532,0.533,0.534,0.534,0.534,0.533,0.532,0.531,0.531,0.53,0.529,0.528,0.527,0.526,0.525,0.524,0.523,0.522,0.521,0.52,0.519,0.518,0.517,0.516,0.515,0.515,0.514,0.514,0.513,0.513,0.512,0.512,0.512,0.511,0.511,0.511,0.511,0.51,0.51,0.51,0.51,0.51,0.509,0.509,0.509,0.509,0.509,0.509,0.509,0.509,0.509,0.509,0.509,0.509,0.509,0.509,0.509,0.509,0.509,0.509,0.509,0.509,0.509,0.509,0.509,0.509,0.509,0.509,0.509,0.509,0.509,0.509,0.509,0.509,0.509,0.508,0.508,0.508,0.508,0.508,0.507,0.507,0.507,0.507,0.507,0.507,0.506,0.506,0.506,0.506,0.506,0.506,0.507,0.507,0.507,0.507,0.507,0.508,0.508,0.508,0.508,0.508,0.508,0.508,0.508,0.508,0.508,0.508,0.508,0.508,0.508,0.508,0.508,0.508,0.508,0.508,0.507,0.507,0.507,0.507,0.507,0.507,0.507,0.507,0.507,0.507,0.506,0.506,0.506,0.506,0.506,0.506,0.506,0.506,0.505,0.505,0.505,0.505,0.505,0.505,0.504,0.504,0.504,0.504,0.504
1.593,1.593,1.593,1.597,1.597,1.597,1.597,1.597,1.597,1.597,1.593,1.593,1.589,1.589,1.589,1.589,1.589,1.589,1.585,1.585,1.585,1.585,1.585,1.581,1.581,1.581,1.576,1.576,1.572,1.572,1.568,1.568,1.568,1.568,1.564,1.564,0,0,0,0,0,0,0,0,0,0,0,0,0,0,0,0,0,0,0,0,0.606,0.606,0.606,0.605,0.605,0.605,0.604,0.604,0.604,0.604,0.603,0.603,0.603,0.603,0.603,0.603,0.603,0.603,0.603,0.602,0.602,0.602,0.602,0.602,0.602,0.602,0.601,0.601,0.6,0.6,0.6,0.6,0.6,0.6,0.6,0.6,0.6,0.6,0.6,0.6,0.6,0.6,0.599,0.599,0.599,0.599,0.599,0.599,0.598,0.598,0.598,0.598,0.598,0.597,0.597,0.597,0.597,0.597,0.597,0.597,0.597,0.597,0.597,0.597,0.597,0.597,0.596,0.597,0.597,0.597,0.597,0.597,0.597,0.597,0.596,0.597,0.596,0.596,0.595,0.595,0.593,0.593,0.59,0.586,0.581,0.576,0.569,0,0.559,0.555,0.551,0.549,0.547,0.547,0.546,0.546,0.546,0.546,0.546,0.546,0.546,0.546,0.546,0.546,0.546,0.546,0.546,0.546,0.546,0.546,0.546,0.546,0.546,0.546,0.546,0.546,0.546,0.546,0.546,0.546,0.545,0.545,0.546,0.545,0.546,0.546,0.546,0.546,0,0,0,0,0,0,0,0,0,0.458,0.458,0.458,0.458,0.458,0.458,0.458,0.458,0.458,0.458,0.458,0.458,0.458,0.458,0.457,0.457,0.457,0.457,0.456,0.456,0.456,0.456,0.456,0.457,0.457,0.457,0.457,0.456,0.456,0.456,0.456,0.456,0.456,0.456,0.456,0.456,0.456,0.456,0.456,0.456,0.456,0.456,0.456,0.456,0.456,0.456,0.456,0.455,0.455,0.456,0.456,0.456,0.456,0.456,0.456,0.456,0.456,0.457,0.456,0.457,0.457,0.456,0.456,0.456,0.456,0.455,0.455,0.454,0.454,0.454,0.454,0.454,0.454,0.454,0.454,0.455,0.455,0.455,0.455,0.454,0.454,0.454,0.453,0.453,0.453,0.453,0.453,0.453,0.453,0.453,0.452,0.452,0.452,0.451,0.451,0.45,0.45,0.45,0.45,0.45,0.45,0.45,0.45,0.451,0.451,0.451,0.45,0.451,0.45,0.45,0.45,0.45,0.45,0.45,0.45,0.45,0.45,0.45,0.45,0.45,0.449,0.449,0.449,0.448,0.448,0.448,0.448,0.448,0,0,0,0,0.449,0,0.449,0.449,0.449,0.448,0,0,0,0,0,0.53,0.53,0.53,0.53,0.53,0.53,0.529,0.529,0.528,0.528,0.528,0.527,0.527,0.527,0.527,0.526,0.526,0.526,0.525,0.525,0.525,0.524,0.524,0.523,0.523,0.522,0.522,0.522,0.522,0.522,0.522,0.522,0.522,0.522,0.522,0.522,0.521,0.521,0.521,0.521,0.521,0.521,0.521,0.521,0.521,0.522,0.522,0.522,0.522,0.522,0.523,0.522,0.523,0.522,0.523,0.522,0.523,0.523,0.525,0.525,0.527,0.528,0.529,0.53,0.531,0.532,0.532,0.531,0.531,0.53,0.53,0.529,0.528,0.527,0.526,0.525,0.525,0.523,0.522,0.521,0.52,0.519,0.518,0.517,0.516,0.515,0.515,0.514,0.514,0.513,0.513,0.512,0.512,0.511,0.511,0.511,0.51,0.51,0.51,0.509,0.509,0.509,0.509,0.509,0.509,0.509,0.509,0.509,0.508,0.508,0.508,0.508,0.508,0.508,0.508,0.508,0.508,0.508,0.508,0.508,0.508,0.508,0.508,0.508,0.508,0.508,0.508,0.508,0.508,0.508,0.508,0.508,0.508,0.508,0.508,0.508,0.507,0.507,0.507,0.507,0.507,0.507,0.506,0.506,0.506,0.506,0.506,0.506,0.506,0.506,0.506,0.506,0.506,0.506,0.506,0.506,0.506,0.506,0.506,0.506,0.507,0.507,0.507,0.507,0.507,0.507,0.507,0.507,0.507,0.507,0.507,0.507,0.507,0.507,0.507,0.507,0.507,0.506,0.506,0.506,0.506,0.506,0.506,0.506,0.506,0.506,0.506,0.506,0.506,0.506,0.506,0.506,0.506,0.505,0.505,0.505,0.505,0.504,0.504,0.504,0.504,0.504,0.504,0.504,0.504,0.504,0.504
1.589,1.589,1.593,1.593,1.593,1.593,1.593,1.593,1.593,1.593,1.589,1.589,1.589,1.589,1.589,1.585,1.585,1.585,1.585,1.585,1.585,1.585,1.581,1.581,1.581,1.576,1.576,1.576,1.572,1.568,1.568,1.568,1.564,1.568,1.564,1.564,1.56,0,0,0,0,0,0,0,0,0,0,0,0,0,0,0,0,0,0,0,0,0.604,0.604,0.604,0.603,0.603,0.603,0.603,0.603,0.603,0.602,0.602,0.602,0.602,0.602,0.602,0.602,0.602,0.602,0.602,0.601,0.601,0.601,0.6,0.601,0.601,0.6,0.6,0.6,0.6,0.6,0.6,0.6,0.6,0.6,0.6,0.6,0.6,0.6,0.6,0.6,0.599,0.599,0.599,0.599,0.598,0.598,0.598,0.598,0.597,0.597,0.597,0.597,0.597,0.597,0.597,0.597,0.597,0.597,0.597,0.597,0.596,0.596,0.596,0.596,0.596,0.596,0.596,0.596,0.596,0.596,0.596,0.596,0.596,0.596,0.595,0.595,0.594,0.593,0.593,0.592,0.592,0.588,0.583,0.578,0,0,0.56,0.555,0.552,0.549,0.547,0.546,0.545,0.545,0.545,0.545,0.544,0.545,0.544,0.544,0.545,0.545,0.545,0.545,0.545,0.545,0.545,0.545,0.545,0.545,0.545,0.545,0.545,0.545,0.545,0.545,0.545,0.545,0.545,0.545,0.545,0.545,0.545,0.545,0.545,0.545,0.545,0,0,0,0,0,0,0,0,0.457,0.457,0.457,0.457,0.457,0.457,0.457,0.457,0.457,0.457,0.457,0.457,0.457,0.457,0.457,0.457,0.457,0.456,0.456,0.456,0.456,0.455,0.455,0.456,0.456,0.456,0.456,0.456,0.456,0.456,0.456,0.456,0.455,0.455,0.455,0.455,0.455,0.455,0.455,0.455,0.455,0.455,0.455,0.456,0.456,0.456,0.456,0.455,0.455,0.455,0.455,0.455,0.455,0.455,0.456,0.456,0.456,0.456,0.456,0.456,0.456,0.456,0.456,0.456,0.455,0.455,0.455,0.454,0.454,0.454,0.454,0.454,0.454,0.454,0.454,0.454,0.454,0.454,0.454,0.454,0.454,0.454,0.453,0.453,0.453,0.452,0.452,0.452,0.452,0.452,0.452,0.451,0.451,0.451,0.45,0.45,0.45,0.449,0.449,0.449,0.449,0.449,0.45,0.45,0.45,0.45,0.45,0.45,0.45,0.45,0.45,0.45,0.45,0.45,0.45,0.45,0.449,0.449,0.449,0.449,0.449,0.449,0.449,0.449,0.448,0.448,0.448,0.448,0.447,0.448,0.448,0,0.448,0.449,0.449,0.449,0.449,0.448,0.448,0.448,0,0,0,0,0.53,0.53,0.53,0.53,0,0,0.529,0.529,0.529,0.528,0.527,0.527,0.527,0.526,0.526,0.526,0.525,0.525,0.525,0.524,0.524,0.523,0.523,0.522,0.522,0.522,0.521,0.522,0.521,0.521,0.521,0.521,0.521,0.521,0.521,0.521,0.521,0.521,0.52,0.52,0.52,0.52,0.52,0.521,0.521,0.521,0.521,0.521,0.521,0.522,0.522,0.521,0.522,0.522,0.522,0.522,0.521,0.522,0.523,0.524,0.525,0.526,0.527,0.528,0.529,0.53,0.53,0.53,0.529,0.529,0.528,0.527,0.527,0.526,0.525,0.524,0.523,0.522,0.521,0.52,0.519,0.518,0.517,0.516,0.515,0.515,0.514,0.514,0.513,0.513,0.512,0.512,0.511,0.511,0.511,0.51,0.51,0.509,0.509,0.509,0.509,0.509,0.508,0.508,0.508,0.508,0.508,0.508,0.508,0.507,0.507,0.507,0.507,0.507,0.507,0.507,0.507,0.507,0.507,0.507,0.507,0.507,0.507,0.507,0.507,0.507,0.507,0.507,0.507,0.507,0.507,0.507,0.507,0.507,0.507,0.506,0.506,0.506,0.506,0.506,0.506,0.506,0.506,0.506,0.505,0.505,0.505,0.505,0.505,0.505,0.505,0.505,0.505,0.505,0.505,0.505,0.505,0.505,0.506,0.506,0.506,0.506,0.506,0.506,0.506,0.506,0.506,0.506,0.506,0.506,0.506,0.506,0.506,0.506,0.506,0.506,0.506,0.506,0.506,0.506,0.506,0.506,0.506,0.505,0.505,0.505,0.505,0.505,0.505,0.505,0.505,0.505,0.505,0.505,0.504,0.504,0.504,0.504,0.504,0.504,0.504,0.504,0.503,0.503,0.503,0.503,0.503
1.589,1.589,1.589,1.589,1.589,1.589,1.589,1.589,1.589,1.589,1.589,1.589,1.589,1.585,1.585,1.585,1.585,1.585,1.585,1.585,1.585,1.581,1.581,1.581,1.576,1.576,1.576,1.572,1.572,1.568,1.564,1.564,1.564,1.56,1.56,1.56,1.556,0,0,0,0,0,0,0,0,0,0,0,0,0,0,0,0,0,0,0,0,0.603,0.603,0.603,0.603,0.603,0.602,0.602,0.602,0.602,0.602,0.601,0.601,0.601,0.601,0.601,0.6,0.6,0.6,0.6,0.6,0.6,0.6,0.6,0.6,0.6,0.6,0.6,0.6,0.6,0.599,0.6,0.6,0.6,0.6,0.6,0.6,0.6,0.6,0.6,0.6,0.599,0.599,0.599,0.599,0.598,0.598,0.597,0.597,0.597,0.597,0.597,0.597,0.597,0.597,0.596,0.596,0.596,0.596,0.596,0.596,0.596,0.596,0.595,0.595,0.595,0.595,0.595,0.595,0.595,0.595,0.595,0.595,0.595,0.595,0.594,0.593,0.593,0.592,0.592,0.591,0.591,0.586,0.581,0,0,0.563,0.557,0.552,0.549,0.547,0.546,0.545,0.544,0.544,0.544,0.544,0.543,0.543,0.543,0.543,0.544,0.544,0.544,0.544,0.544,0.544,0.544,0.544,0.544,0.545,0.545,0.545,0.545,0.544,0.544,0.545,0.545,0.544,0.545,0.544,0.544,0.544,0.544,0.544,0.545,0.545,0.545,0,0,0,0,0,0,0,0,0.456,0.456,0.456,0.456,0.456,0.456,0.456,0.456,0.456,0.456,0.457,0.456,0.456,0.456,0.456,0.456,0.456,0.455,0.455,0.455,0.455,0.455,0.455,0.455,0.455,0.455,0.455,0.455,0.455,0.455,0.455,0.455,0.454,0.454,0.454,0.454,0.454,0.454,0.454,0.454,0.454,0.455,0.455,0.455,0.455,0.455,0.455,0.455,0.455,0.455,0.455,0.455,0.455,0.455,0.455,0.455,0.455,0.455,0.455,0.455,0.455,0.455,0.455,0.455,0.455,0.454,0.454,0.454,0.454,0.454,0.453,0.453,0.454,0.453,0.453,0.453,0.454,0.454,0.454,0.454,0.453,0.453,0.453,0.452,0.452,0.452,0.452,0.451,0.451,0.451,0.451,0.451,0.451,0.45,0.45,0.449,0.449,0.449,0.449,0.449,0.449,0.449,0.449,0.449,0.449,0.449,0.45,0.45,0.45,0.449,0.449,0.449,0.449,0.449,0.449,0.449,0.449,0.449,0.449,0.449,0.449,0.449,0.448,0.448,0.448,0.448,0.448,0.448,0.447,0.447,0.447,0.447,0.448,0.448,0.448,0.448,0.448,0.448,0.448,0.447,0.447,0.447,0.447,0.446,0,0,0,0,0,0,0.529,0.528,0.528,0.527,0.527,0.526,0.526,0.525,0.525,0.525,0.525,0.524,0.524,0.523,0.523,0.522,0.522,0.521,0.521,0.521,0.521,0.521,0.521,0.521,0.521,0.521,0.52,0.52,0.52,0.52,0.52,0.519,0.519,0.519,0.519,0.519,0.519,0.52,0.52,0.52,0.52,0.521,0.521,0.521,0.521,0.521,0.521,0.521,0.521,0.521,0.521,0.521,0.521,0.522,0.523,0.523,0.524,0.525,0.526,0.527,0.527,0.527,0.527,0.527,0.526,0.526,0.525,0.525,0.524,0.523,0.522,0.521,0.52,0.519,0.518,0.517,0.516,0.516,0.515,0.514,0.514,0.513,0.513,0.512,0.512,0.511,0.511,0.51,0.51,0.509,0.509,0.509,0.509,0.508,0.508,0.508,0.507,0.507,0.507,0.507,0.507,0.507,0.507,0.507,0.506,0.506,0.506,0.506,0.506,0.506,0.506,0.506,0.506,0.506,0.506,0.506,0.506,0.506,0.506,0.506,0.506,0.506,0.506,0.506,0.506,0.506,0.506,0.506,0.506,0.506,0.506,0.506,0.506,0.505,0.505,0.505,0.505,0.505,0.505,0.505,0.505,0.504,0.504,0.504,0.504,0.504,0.504,0.504,0.504,0.504,0.504,0.505,0.505,0.505,0.505,0.505,0.505,0.505,0.505,0.505,0.505,0.505,0.505,0.505,0.505,0.505,0.505,0.505,0.505,0.505,0.505,0.505,0.505,0.505,0.505,0.505,0.505,0.505,0.505,0.505,0.505,0.505,0.504,0.504,0.504,0.504,0.504,0.504,0.504,0.504,0.504,0.504,0.503,0.503,0.503,0.503,0.503,0.503,0.503,0.502,0.502
1.585,1.585,1.589,1.589,1.589,1.589,1.589,1.589,1.589,1.589,1.585,1.585,1.585,1.585,1.585,1.585,1.585,1.585,1.585,1.585,1.581,1.581,1.581,1.581,1.576,1.576,1.572,1.572,1.568,1.568,1.564,1.564,1.56,1.56,1.556,1.556,0,0,0,0,0,0,0,0,0,0,0,0,0,0,0,0,0,0,0,0,0.602,0.602,0.602,0.602,0.602,0.602,0.601,0.601,0.6,0.6,0.6,0.6,0.6,0.6,0.6,0.6,0.6,0.599,0.599,0.599,0.599,0.599,0.599,0.599,0.599,0.599,0.599,0.599,0.599,0.599,0.599,0.599,0.599,0.599,0.599,0.599,0.599,0.599,0.599,0.599,0.599,0.599,0.599,0.598,0.598,0.597,0.597,0.597,0.597,0.597,0.597,0.596,0.596,0.596,0.596,0.596,0.596,0.596,0.595,0.595,0.595,0.595,0.595,0.595,0.595,0.594,0.594,0.594,0.593,0.593,0.593,0.593,0.593,0.593,0.593,0.593,0.592,0.592,0.591,0,0,0.588,0.582,0.576,0,0,0.558,0.553,0.549,0.547,0.545,0.545,0.544,0.543,0.543,0.543,0.543,0.542,0.542,0.543,0.543,0.543,0.543,0.543,0.543,0.544,0.544,0.543,0.543,0.544,0.544,0.544,0.544,0.544,0.544,0.544,0.544,0.544,0.544,0.544,0.544,0.543,0.544,0.544,0.544,0.545,0.545,0,0,0,0,0,0,0,0,0.455,0.455,0.455,0.455,0.455,0.455,0.455,0.456,0.456,0.456,0.456,0.456,0.456,0.456,0.455,0.455,0.455,0.455,0.455,0.454,0.454,0.454,0.454,0.454,0.454,0.454,0.454,0.454,0.454,0.454,0.453,0.453,0.453,0.453,0.453,0.453,0.453,0.453,0.453,0.453,0.453,0.453,0.454,0.454,0.454,0.454,0.455,0.455,0.455,0.455,0.454,0.454,0.454,0.454,0.454,0.454,0.454,0.454,0.455,0.455,0.455,0.455,0.455,0.455,0.455,0.454,0.454,0.454,0.453,0.453,0.453,0.453,0.453,0.453,0.453,0.453,0.453,0.453,0.453,0.453,0.453,0.453,0.453,0.452,0.452,0.452,0.451,0.451,0.451,0.451,0.45,0.45,0.45,0.45,0.45,0.449,0.449,0.449,0.449,0.448,0.448,0.448,0.448,0.449,0.449,0.449,0.449,0.449,0.449,0.449,0.449,0.449,0.449,0.449,0.449,0.449,0.449,0.449,0.448,0.448,0.448,0.448,0.448,0.448,0.447,0.447,0.448,0.447,0.447,0.447,0.447,0.447,0.447,0.447,0.447,0.448,0.448,0.448,0.448,0.447,0.447,0.447,0.447,0.446,0.446,0.446,0,0,0,0,0,0,0.528,0.527,0.527,0.527,0.526,0.525,0.525,0.525,0.524,0.524,0.523,0.523,0.522,0.522,0.521,0.521,0.521,0.521,0.52,0.52,0.52,0.52,0.52,0.52,0.519,0.519,0.519,0.519,0.519,0.519,0.518,0.518,0.518,0.518,0.518,0.518,0.519,0.519,0.519,0.519,0.519,0.52,0.52,0.52,0.519,0.519,0.52,0.519,0.519,0.519,0.519,0.519,0.519,0.52,0.521,0.521,0.522,0.523,0.524,0.525,0.525,0.525,0.525,0.525,0.525,0.524,0.523,0.523,0.522,0.521,0.52,0.519,0.518,0.518,0.517,0.516,0.515,0.514,0.514,0.513,0.513,0.512,0.512,0.511,0.511,0.51,0.51,0.509,0.509,0.509,0.508,0.508,0.507,0.507,0.507,0.506,0.506,0.506,0.506,0.506,0.506,0.506,0.506,0.506,0.506,0.506,0.506,0.506,0.506,0.506,0.506,0.505,0.505,0.505,0.505,0.505,0.505,0.505,0.505,0.505,0.505,0.505,0.505,0.505,0.505,0.505,0.505,0.505,0.505,0.505,0.505,0.505,0.505,0.505,0.504,0.504,0.504,0.504,0.504,0.504,0.504,0.504,0.504,0.504,0.504,0.504,0.504,0.504,0.504,0.504,0.504,0.504,0.504,0.504,0.504,0.504,0.504,0.504,0.504,0.504,0.504,0.504,0.504,0.504,0.504,0.504,0.504,0.504,0.504,0.504,0.504,0.504,0.504,0.504,0.504,0.504,0.504,0.504,0.504,0.504,0.504,0.504,0.504,0.504,0.504,0.504,0.504,0.503,0.503,0.503,0.503,0.503,0.502,0.502,0.502,0.502,0.502,0.502,0.502,0.502
1.585,1.585,1.585,1.585,1.585,1.585,1.585,1.585,1.585,1.585,1.585,1.585,1.585,1.585,1.581,1.581,1.585,1.585,1.581,1.581,1.581,1.581,1.581,1.576,1.576,1.572,1.572,1.568,1.568,1.564,1.56,1.56,1.556,1.556,1.556,1.556,0,0,0,0,0,0,0,0,0,0,0,0,0,0,0,0,0,0,0,0,0.601,0.601,0.601,0.6,0.6,0.6,0.6,0.6,0.6,0.6,0.599,0.599,0.599,0.599,0.599,0.599,0.599,0.599,0.599,0.598,0.598,0.598,0.598,0.597,0.597,0.598,0.598,0.598,0.598,0.598,0.598,0.598,0.599,0.599,0.599,0.599,0.599,0.599,0.599,0.599,0.599,0.598,0.598,0.597,0.597,0.597,0.597,0.596,0.596,0.596,0.596,0.596,0.596,0.595,0.595,0.595,0.595,0.595,0.594,0.594,0.594,0.594,0.593,0.593,0.593,0.593,0.593,0.593,0.593,0.592,0.592,0.592,0.592,0.592,0.591,0.591,0.591,0.591,0.59,0.588,0.586,0.584,0.577,0.571,0,0,0.554,0.549,0.546,0.544,0.543,0.543,0.542,0.542,0.542,0.542,0.542,0.541,0.542,0.542,0.542,0.542,0.542,0.542,0.543,0.543,0.543,0.543,0.543,0.543,0.543,0.543,0.543,0.543,0.543,0.543,0.543,0.543,0.543,0.543,0.543,0,0,0.543,0.543,0,0,0,0,0,0,0,0,0.454,0.454,0.454,0.454,0.454,0.454,0.454,0.454,0.454,0.455,0.455,0.455,0.455,0.455,0.455,0.455,0.455,0.454,0.454,0.454,0.454,0.454,0.454,0.454,0.454,0.454,0.454,0.454,0.453,0.453,0.453,0.453,0.453,0.452,0.452,0.452,0.452,0.452,0.452,0.452,0.452,0.452,0.452,0.453,0.453,0.453,0.454,0.454,0.454,0.454,0.454,0.454,0.454,0.454,0.453,0.453,0.453,0.453,0.454,0.454,0.454,0.454,0.454,0.454,0.454,0.454,0.454,0.453,0.453,0.453,0.453,0.453,0.452,0.452,0.453,0.452,0.453,0.453,0.453,0.453,0.453,0.453,0.453,0.453,0.452,0.452,0.452,0.451,0.451,0.45,0.45,0.45,0.449,0.449,0.449,0.449,0.449,0.449,0.448,0.448,0.448,0.448,0.448,0.448,0.448,0.448,0.448,0.449,0.449,0.449,0.449,0.449,0.449,0.448,0.448,0.448,0.448,0.448,0.448,0.448,0.447,0.447,0.448,0.447,0.447,0.447,0.447,0.447,0.447,0.447,0.447,0.447,0.447,0.446,0.447,0.447,0.447,0.447,0.447,0.447,0.447,0.447,0.447,0.446,0.446,0.446,0.446,0.445,0.445,0.445,0.445,0.444,0,0,0,0,0.526,0.526,0.525,0.525,0.524,0.523,0.523,0.522,0.522,0.521,0.521,0.521,0.521,0.521,0.52,0.52,0.52,0.52,0.519,0.519,0.519,0.519,0.519,0.519,0.518,0.518,0.518,0.518,0.518,0.518,0.518,0.517,0.517,0.518,0.518,0.518,0.518,0.518,0.518,0.519,0.519,0.519,0.518,0.518,0.518,0.518,0.518,0.518,0.518,0.518,0.518,0.518,0.518,0.519,0.519,0.52,0.521,0.522,0.523,0.523,0.523,0.523,0.523,0.522,0.522,0.521,0.521,0.52,0.519,0.518,0.518,0.517,0.516,0.515,0.514,0.514,0.513,0.513,0.512,0.511,0.511,0.511,0.51,0.509,0.509,0.509,0.508,0.508,0.507,0.507,0.506,0.506,0.506,0.506,0.506,0.506,0.506,0.505,0.505,0.505,0.505,0.505,0.505,0.505,0.505,0.505,0.505,0.505,0.505,0.504,0.504,0.504,0.504,0.504,0.504,0.504,0.504,0.504,0.504,0.504,0.504,0.504,0.504,0.504,0.504,0.504,0.504,0.504,0.504,0.504,0.504,0.504,0.504,0.504,0.504,0.504,0.504,0.504,0.503,0.503,0.503,0.503,0.503,0.503,0.503,0.503,0.503,0.503,0.503,0.503,0.503,0.503,0.504,0.504,0.504,0.504,0.504,0.504,0.504,0.504,0.504,0.504,0.504,0.504,0.504,0.504,0.504,0.504,0.504,0.504,0.504,0.504,0.504,0.504,0.504,0.504,0.503,0.503,0.503,0.503,0.503,0.503,0.503,0.503,0.503,0.502,0.502,0.502,0.502,0.502,0.502,0.502,0.501,0.501,0.501,0.501,0.501,0.501
1.585,1.585,1.585,1.585,1.585,1.585,1.585,1.585,1.581,1.581,1.581,1.581,1.581,1.581,1.581,1.581,1.581,1.581,1.581,1.581,1.581,1.581,1.576,1.576,1.576,1.572,1.568,1.568,1.568,1.564,1.56,1.56,1.556,1.556,1.553,1.553,0,0,0,0,0,0,0,0,0,0,0,0,0,0,0,0,0,0,0,0,0.6,0.6,0.6,0.6,0.599,0.599,0.599,0.599,0.599,0.599,0.599,0.598,0.598,0.598,0.598,0.597,0.597,0.597,0.597,0.597,0.597,0.597,0.596,0.596,0.596,0.596,0.597,0.597,0.597,0.597,0.597,0.597,0.597,0.597,0.597,0.597,0.597,0.597,0.597,0.597,0.597,0.597,0.597,0.597,0.596,0.596,0.596,0.596,0.596,0.595,0.595,0.595,0.595,0.595,0.594,0.594,0.593,0.593,0.593,0.593,0.593,0.593,0.593,0.593,0.593,0.593,0.593,0.592,0.592,0.592,0.592,0.592,0.591,0.591,0.59,0.589,0.589,0.588,0.587,0.584,0.581,0.578,0.571,0.565,0,0,0.55,0.546,0.543,0.542,0.542,0.542,0.541,0.541,0.541,0.541,0.541,0.541,0.541,0.541,0.541,0.541,0.541,0.542,0.542,0.542,0.542,0.542,0.542,0.542,0.542,0.542,0.542,0.542,0.542,0.542,0.541,0.542,0.542,0.541,0,0,0,0.543,0,0,0,0,0,0,0,0.453,0.453,0.453,0.453,0.453,0.453,0.453,0.453,0.453,0.454,0.454,0.454,0.454,0.454,0.454,0.454,0.454,0.454,0.454,0.454,0.454,0.454,0.454,0.453,0.453,0.453,0.453,0.453,0.453,0.453,0.453,0.453,0.453,0.452,0.452,0.452,0.451,0.451,0.451,0.451,0.451,0.451,0.451,0.451,0.452,0.452,0.452,0.453,0.453,0.453,0.453,0.453,0.454,0.453,0.453,0.453,0.452,0.452,0.452,0.453,0.453,0.453,0.453,0.453,0.453,0.453,0.453,0.453,0.453,0.453,0.453,0.452,0.452,0.452,0.452,0.452,0.452,0.452,0.452,0.452,0.452,0.452,0.452,0.452,0.452,0.452,0.452,0.451,0.451,0.45,0.45,0.449,0.449,0.449,0.448,0.448,0.448,0.448,0.448,0.448,0.448,0.448,0.448,0.448,0.448,0.448,0.448,0.448,0.448,0.448,0.448,0.448,0.448,0.448,0.448,0.448,0.448,0.447,0.447,0.447,0.447,0.447,0.447,0.447,0.447,0.447,0.447,0.447,0.447,0.447,0.447,0.447,0.446,0.446,0.446,0.446,0.446,0.446,0.446,0.446,0.446,0.446,0.446,0.446,0.446,0.446,0.446,0.446,0.445,0.445,0.445,0.444,0.444,0.444,0.444,0,0,0,0,0.524,0.523,0.523,0.522,0.521,0.521,0.521,0.521,0.52,0.52,0.52,0.52,0.52,0.52,0.519,0.519,0.519,0.519,0.518,0.518,0.518,0.518,0.518,0.518,0.518,0.517,0.518,0.517,0.517,0.517,0.516,0.517,0.517,0.517,0.517,0.518,0.518,0.518,0.518,0.518,0.518,0.517,0.517,0.517,0.517,0.517,0.516,0.516,0.516,0.516,0.516,0.516,0.517,0.517,0.518,0.519,0.52,0.521,0.521,0.521,0.521,0.521,0.521,0.521,0.52,0.52,0.519,0.518,0.518,0.517,0.516,0.515,0.515,0.514,0.514,0.513,0.512,0.511,0.511,0.511,0.51,0.509,0.509,0.508,0.508,0.508,0.507,0.507,0.506,0.506,0.506,0.505,0.505,0.505,0.505,0.504,0.504,0.504,0.504,0.504,0.504,0.504,0.504,0.504,0.504,0.504,0.504,0.504,0.504,0.504,0.504,0.504,0.504,0.504,0.504,0.504,0.504,0.504,0.504,0.504,0.504,0.504,0.504,0.504,0.504,0.504,0.504,0.504,0.504,0.504,0.504,0.504,0.503,0.503,0.503,0.503,0.503,0.503,0.503,0.503,0.503,0.503,0.503,0.503,0.503,0.502,0.502,0.502,0.503,0.503,0.503,0.503,0.503,0.503,0.503,0.504,0.504,0.504,0.504,0.504,0.504,0.504,0.504,0.504,0.504,0.504,0.504,0.504,0.504,0.504,0.503,0.503,0.503,0.503,0.503,0.503,0.503,0.503,0.503,0.502,0.502,0.502,0.502,0.502,0.502,0.502,0.501,0.501,0.501,0.501,0.501,0.501,0.501,0.501,0.501,0.5,0.5
1.581,1.585,1.581,1.581,1.581,1.581,1.581,1.581,1.581,1.581,1.581,1.581,1.581,1.581,1.581,1.581,1.581,1.581,1.581,1.581,1.581,1.576,1.576,1.576,1.572,1.572,1.568,1.568,1.564,1.564,1.56,1.556,1.556,1.553,1.553,1.549,1.549,0,0,0,0,0,0,0,0,0,0,0,0,0,0,0,0,0,0,0,0,0.599,0.599,0.599,0.599,0.599,0.599,0.598,0.597,0.597,0.597,0.597,0.597,0.597,0.597,0.596,0.596,0.596,0.596,0.596,0.596,0.596,0.596,0.595,0.595,0.595,0.595,0.596,0.596,0.596,0.596,0.596,0.596,0.596,0.596,0.596,0.596,0.596,0.596,0.596,0.596,0.596,0.596,0.596,0.596,0.595,0.595,0.595,0.595,0.595,0.595,0.595,0.594,0.594,0.593,0.593,0.593,0.592,0.592,0.592,0.592,0.592,0.592,0.592,0.592,0.592,0.592,0.592,0.592,0.591,0.591,0.591,0.59,0.589,0.589,0.589,0.588,0.587,0.584,0.581,0.576,0.572,0.565,0,0,0,0.547,0.544,0.541,0.541,0.541,0.541,0.541,0.54,0.54,0.54,0.54,0.54,0.54,0.54,0.54,0.54,0.541,0.541,0.541,0.541,0.541,0.541,0.541,0.541,0.541,0.541,0.541,0.54,0.541,0.54,0.54,0.54,0.54,0.54,0.54,0.541,0.541,0.542,0,0,0,0,0,0,0,0.452,0.452,0.452,0.452,0.452,0.452,0.452,0.452,0.453,0.453,0.453,0.453,0.453,0.453,0.453,0.453,0.453,0.453,0.453,0.453,0.453,0.453,0.453,0.453,0.453,0.453,0.453,0.453,0.453,0.453,0.452,0.452,0.452,0.451,0.451,0.451,0.45,0.45,0.45,0.45,0.45,0.45,0.45,0.45,0.451,0.451,0.452,0.452,0.452,0.453,0.453,0.453,0.453,0.453,0.452,0.452,0.452,0,0,0.452,0.452,0.452,0.452,0.452,0.452,0.452,0.452,0.452,0.452,0.452,0.452,0.452,0.452,0.451,0.451,0.451,0.451,0.451,0.451,0.451,0.451,0.452,0.452,0.452,0.452,0.452,0.451,0.451,0.45,0.45,0.449,0.449,0.448,0.448,0.448,0.447,0.447,0.447,0.447,0.447,0.447,0.447,0.447,0.447,0.447,0.447,0.447,0.448,0.448,0.448,0.448,0.448,0.448,0.448,0.447,0.447,0.447,0.447,0.446,0.447,0.446,0.446,0.446,0.446,0.446,0.446,0.446,0.446,0.446,0.446,0.446,0.446,0.446,0.446,0.446,0.446,0.446,0.446,0.446,0.446,0.446,0.446,0.446,0.446,0.446,0.446,0.446,0.445,0.445,0.445,0.444,0.444,0.444,0.444,0.444,0.444,0,0,0,0.522,0.521,0.521,0.52,0.52,0.519,0.519,0.519,0.518,0.518,0.518,0.518,0.518,0.518,0.518,0.518,0.518,0.518,0.518,0.517,0.517,0.517,0.517,0.517,0.516,0.516,0.516,0.516,0.516,0.516,0.516,0.516,0.516,0.516,0.517,0.517,0.517,0.517,0.517,0.517,0.516,0.516,0.516,0.516,0.515,0.515,0.514,0.514,0.514,0.514,0.514,0.514,0.514,0.515,0.516,0.517,0.518,0.519,0.52,0.519,0.52,0.52,0.52,0.519,0.519,0.518,0.518,0.518,0.517,0.516,0.515,0.515,0.514,0.514,0.513,0.512,0.511,0.511,0.51,0.51,0.509,0.509,0.508,0.507,0.507,0.507,0.506,0.506,0.506,0.505,0.505,0.504,0.504,0.504,0.504,0.504,0.504,0.504,0.504,0.504,0.504,0.504,0.504,0.503,0.503,0.503,0.503,0.503,0.503,0.503,0.503,0.503,0.503,0.503,0.503,0.503,0.503,0.503,0.503,0.503,0.503,0.503,0.503,0.503,0.503,0.503,0.503,0.503,0.503,0.503,0.503,0.503,0.503,0.503,0.503,0.503,0.503,0.503,0.502,0.502,0.502,0.502,0.502,0.502,0.502,0.502,0.502,0.502,0.502,0.502,0.502,0.502,0.503,0.503,0.503,0.503,0.503,0.503,0.503,0.503,0.503,0.503,0.503,0.503,0.503,0.503,0.503,0.503,0.503,0.503,0.503,0.503,0.503,0.503,0.502,0.502,0.502,0.502,0.502,0.502,0.502,0.502,0.501,0.501,0.501,0.501,0.501,0.501,0.501,0.501,0.5,0.5,0.5,0.5,0.5,0.5,0.5
1.581,1.581,1.581,1.581,1.581,1.581,1.581,1.581,1.581,1.581,1.581,1.581,1.581,1.581,1.581,1.581,1.581,1.581,1.581,1.576,1.576,1.576,1.576,1.572,1.572,1.568,1.568,1.564,1.564,1.56,1.556,1.556,1.553,1.553,1.549,1.549,0,0,0,0,0,0,0,0,0,0,0,0,0,0,0,0,0,0,0,0,0.597,0.597,0.597,0.597,0.597,0.597,0.597,0.597,0.597,0.596,0.596,0.596,0.596,0.596,0.596,0.596,0.595,0.595,0.595,0.595,0.595,0.595,0.595,0.594,0.594,0.594,0.594,0.595,0.594,0.595,0.595,0.595,0.595,0.595,0.595,0.595,0.595,0.595,0.595,0.595,0.595,0.595,0.595,0.595,0.595,0.594,0.594,0.594,0.594,0.594,0.594,0.593,0.593,0.593,0.593,0.592,0.592,0.591,0.591,0.591,0.591,0.591,0.591,0.591,0.591,0.591,0.592,0.592,0.591,0.591,0.591,0.59,0.589,0.589,0.588,0.588,0.587,0.584,0.582,0.577,0.572,0,0,0.555,0.55,0,0.545,0.542,0.54,0.541,0.541,0.54,0.54,0.54,0.539,0.539,0.539,0.539,0.539,0.54,0.54,0.54,0.54,0.54,0.54,0.541,0.541,0.54,0.54,0.54,0.54,0.54,0.54,0.54,0.539,0.539,0.539,0.539,0.54,0.539,0.539,0.54,0,0,0,0,0,0,0,0,0.451,0.452,0.452,0.452,0.452,0.452,0.452,0.452,0.452,0.452,0.452,0.452,0.452,0.452,0.453,0.453,0.453,0.453,0.453,0.452,0.453,0.453,0.453,0.453,0.452,0.453,0.453,0.453,0.453,0.452,0.452,0.452,0.451,0.451,0.45,0.45,0.45,0.45,0.449,0.449,0.449,0.449,0.449,0.449,0.449,0.45,0.45,0.451,0.451,0.452,0.452,0.452,0.452,0.452,0.452,0.451,0.451,0.451,0.45,0.45,0.451,0.451,0.451,0.451,0.451,0.451,0.451,0.451,0.451,0.451,0.451,0.45,0.45,0.45,0.45,0.45,0.45,0.45,0.45,0.45,0.45,0.45,0.451,0.451,0.451,0.451,0.451,0.45,0.45,0.449,0.449,0.448,0.448,0.447,0.447,0.447,0.447,0.447,0.446,0.447,0.447,0.446,0.447,0.446,0.447,0.447,0.447,0.447,0.447,0.447,0.447,0.447,0.447,0.447,0.447,0.447,0.447,0.446,0.446,0.446,0.446,0.446,0.446,0.446,0.446,0.446,0.446,0.446,0.446,0.446,0.446,0.446,0.446,0.446,0.446,0.446,0.445,0.446,0.446,0.446,0.446,0.446,0.446,0.446,0.445,0.445,0.445,0.445,0.444,0.444,0.444,0.444,0.444,0.444,0.444,0.444,0.444,0.444,0,0,0.52,0.519,0.518,0.518,0.518,0.518,0.518,0.517,0.517,0.517,0.517,0.517,0.517,0.518,0.517,0.517,0.517,0.517,0.516,0.516,0.516,0.516,0.516,0.516,0.516,0.516,0.516,0.515,0.515,0.515,0.515,0.515,0.515,0.515,0.515,0.515,0.515,0.516,0.516,0.515,0.515,0.515,0.514,0.514,0.514,0.514,0.513,0.513,0.512,0.512,0.512,0.513,0.513,0.514,0.515,0.516,0.517,0.517,0.518,0.518,0.518,0.519,0.518,0.518,0.518,0.518,0.517,0.517,0.516,0.515,0.515,0.514,0.514,0.513,0.512,0.511,0.511,0.51,0.509,0.509,0.508,0.508,0.507,0.506,0.506,0.506,0.506,0.505,0.505,0.504,0.504,0.504,0.504,0.503,0.503,0.503,0.503,0.503,0.503,0.503,0.503,0.503,0.503,0.503,0.502,0.502,0.502,0.502,0.502,0.502,0.502,0.502,0.502,0.502,0.502,0.502,0.502,0.502,0.502,0.502,0.502,0.502,0.502,0.502,0.502,0.502,0.502,0.502,0.502,0.502,0.502,0.502,0.502,0.502,0.502,0.502,0.502,0.502,0.502,0.501,0.501,0.501,0.501,0.501,0.501,0.501,0.501,0.501,0.501,0.502,0.502,0.502,0.502,0.502,0.502,0.502,0.503,0.503,0.503,0.503,0.503,0.503,0.503,0.503,0.503,0.503,0.503,0.503,0.503,0.503,0.502,0.502,0.502,0.502,0.502,0.502,0.501,0.501,0.501,0.501,0.501,0.501,0.501,0.501,0.501,0.5,0.5,0.5,0.5,0.5,0.499,0.499,0.499,0.499,0.499,0.499,0.499
1.581,1.581,1.581,1.581,1.581,1.581,1.576,1.576,1.576,1.576,1.576,1.576,1.576,1.576,1.576,1.576,1.576,1.576,1.576,1.576,1.576,1.576,1.572,1.572,1.568,1.568,1.564,1.564,1.564,1.56,1.556,1.556,1.553,1.549,1.549,1.549,1.545,0,0,0,0,0,0,0,0,0,0,0,0,0,0,0,0,0,0,0,0,0.596,0.596,0.596,0.596,0.596,0.596,0.596,0.596,0.596,0.596,0.596,0.596,0.596,0.595,0.595,0.595,0.594,0.594,0.594,0.593,0.593,0.593,0.593,0.593,0.593,0.593,0.593,0.593,0.593,0.593,0.593,0.593,0.594,0.595,0.594,0.594,0.594,0.594,0.594,0.594,0.594,0.593,0.593,0.593,0.593,0.593,0.593,0.593,0.593,0.593,0.593,0.592,0.592,0.592,0.591,0.591,0.591,0.591,0.591,0.591,0.591,0.591,0.591,0.591,0.591,0.591,0.591,0.591,0.59,0.59,0.589,0.589,0.588,0.588,0.587,0.585,0.581,0.578,0.572,0,0.561,0,0.551,0.547,0.545,0.542,0.541,0.54,0.54,0.54,0.539,0.539,0.539,0.538,0.538,0.538,0.538,0.539,0.539,0.539,0.539,0.539,0.539,0.539,0.54,0.54,0.539,0.539,0.539,0.538,0.538,0.538,0.538,0.538,0.538,0.538,0.538,0.538,0.538,0.538,0.538,0,0,0,0,0,0,0,0.451,0.451,0.451,0.451,0.451,0.451,0.451,0.451,0.451,0.451,0.451,0.451,0.452,0.452,0.452,0.452,0.452,0.452,0.452,0.452,0.452,0.452,0.452,0.452,0.452,0.452,0.452,0.452,0.452,0.452,0.452,0.452,0.451,0.451,0.45,0.45,0.449,0.449,0.448,0.448,0.448,0.448,0.448,0.448,0.449,0.449,0.449,0.45,0.45,0.451,0.451,0.451,0.451,0.451,0.451,0.451,0.45,0.45,0.449,0.449,0.449,0.449,0.45,0.449,0.45,0.45,0.45,0.45,0.45,0.45,0.45,0.449,0.449,0.449,0.449,0.449,0.449,0.449,0.449,0.449,0.449,0.449,0.449,0.45,0.45,0.45,0.45,0.45,0.449,0.449,0.448,0.448,0.447,0.446,0.446,0.446,0.446,0.446,0.446,0.446,0.446,0.446,0.446,0.446,0.446,0.446,0.446,0.446,0.446,0.446,0.447,0.447,0.447,0.447,0.447,0.446,0.446,0.446,0.446,0.445,0.445,0.445,0.445,0.445,0.445,0.445,0.445,0.445,0.445,0.445,0.445,0.445,0.446,0.446,0.445,0.445,0.445,0.445,0.445,0.445,0.445,0.445,0.445,0.445,0.445,0.445,0.445,0.444,0.444,0.444,0.443,0.443,0.443,0.443,0.444,0.444,0.444,0.444,0.444,0,0,0.517,0.517,0.516,0.516,0.516,0.516,0.516,0.516,0.515,0.516,0.516,0.516,0.516,0.516,0.516,0.516,0.516,0.516,0.515,0.515,0.515,0.515,0.515,0.515,0.515,0.515,0.515,0.515,0.515,0.514,0.514,0.514,0.514,0.514,0.514,0.514,0.514,0.514,0.514,0.514,0.514,0.514,0.513,0.513,0.512,0.512,0.512,0.512,0.511,0.511,0.511,0.512,0.512,0.513,0.513,0.514,0.515,0.516,0.516,0.517,0.517,0.517,0.517,0.517,0.517,0.517,0.516,0.516,0.515,0.514,0.514,0.514,0.513,0.512,0.511,0.511,0.51,0.509,0.509,0.508,0.508,0.507,0.506,0.506,0.506,0.505,0.505,0.504,0.504,0.504,0.504,0.503,0.503,0.503,0.503,0.502,0.502,0.502,0.502,0.502,0.502,0.502,0.502,0.502,0.501,0.501,0.501,0.501,0.501,0.501,0.501,0.501,0.501,0.501,0.501,0.501,0.501,0.501,0.501,0.501,0.501,0.502,0.502,0.502,0.502,0.502,0.502,0.502,0.502,0.502,0.502,0.501,0.501,0.501,0.501,0.501,0.501,0.501,0.501,0.501,0.501,0.501,0.501,0.501,0.501,0.501,0.501,0.501,0.501,0.501,0.501,0.501,0.501,0.502,0.502,0.502,0.502,0.502,0.502,0.502,0.502,0.502,0.502,0.502,0.502,0.502,0.502,0.502,0.502,0.502,0.502,0.501,0.501,0.501,0.501,0.501,0.501,0.501,0.501,0.501,0.501,0.5,0.5,0.5,0.5,0.5,0.499,0.499,0.499,0.499,0.499,0.499,0.499,0.499,0.498,0.498,0.498
1.581,1.581,1.581,1.576,1.576,1.576,1.572,1.572,1.572,1.572,1.572,1.572,1.572,1.572,1.572,1.572,1.572,1.572,1.572,1.572,1.572,1.572,1.572,1.572,1.568,1.568,1.564,1.564,1.56,1.556,1.553,1.553,1.549,1.549,1.549,1.549,1.545,0,0,0,0,0,0,0,0,0,0,0,0,0,0,0,0,0,0,0,0,0.595,0.595,0.595,0.595,0.595,0.595,0.595,0.595,0.595,0.595,0.595,0.595,0.595,0.594,0.593,0.593,0.593,0.593,0.593,0.592,0.592,0.592,0.592,0.591,0.591,0.592,0.592,0.592,0.592,0.592,0.592,0.592,0.593,0.593,0.593,0.593,0.593,0.593,0.593,0.593,0.593,0.592,0.592,0.592,0.592,0.592,0.592,0.592,0.592,0.592,0.592,0.591,0.591,0.591,0.591,0.59,0.59,0.589,0.589,0.589,0.59,0.59,0.59,0.591,0.591,0.591,0.59,0.59,0.589,0.589,0.588,0.588,0.588,0.587,0.585,0.582,0.578,0.574,0,0,0.555,0.55,0.547,0.544,0.542,0.54,0.539,0.539,0.539,0.539,0.539,0.538,0.538,0.538,0.538,0.538,0.537,0.538,0.538,0.538,0.538,0.538,0.538,0.538,0.538,0.538,0.538,0.538,0.537,0.537,0.537,0.537,0.536,0.536,0.536,0.536,0.536,0.536,0.536,0,0,0,0,0,0,0,0,0.45,0.45,0.45,0.45,0.451,0.451,0.451,0.451,0.451,0.451,0.451,0.451,0.451,0.451,0.451,0.451,0.451,0.451,0.452,0.452,0.451,0.451,0.451,0.451,0.451,0.451,0.451,0.452,0.452,0.452,0.452,0.451,0.451,0.45,0.45,0.449,0.449,0.448,0.448,0.448,0.447,0.447,0.447,0.447,0.447,0.448,0.448,0.448,0.449,0.449,0.45,0.45,0.45,0.45,0.45,0.45,0.45,0.449,0.449,0.448,0.448,0.448,0.448,0.448,0.448,0.448,0.448,0.449,0.449,0.448,0.448,0.448,0.448,0.448,0.448,0.448,0.448,0.448,0.448,0.448,0.448,0.448,0.448,0.448,0.449,0.449,0.449,0.449,0.449,0.448,0.448,0.447,0.446,0.446,0.446,0.445,0.445,0.445,0.445,0.445,0.445,0.445,0.445,0.445,0.445,0.445,0.445,0.446,0.446,0.446,0.446,0.446,0.446,0.446,0.446,0.446,0.446,0.446,0.446,0.445,0.445,0.444,0.444,0.444,0.444,0.444,0.444,0.444,0.444,0.444,0.445,0.445,0.445,0.445,0.445,0.445,0.445,0.444,0.444,0.444,0.444,0.444,0.444,0.444,0.444,0.444,0.444,0.444,0.444,0.443,0.443,0.443,0.443,0.443,0.443,0.443,0.443,0.443,0.444,0.444,0,0,0.515,0.515,0.515,0.514,0.514,0.514,0.514,0.515,0.514,0.514,0.515,0.515,0.515,0.515,0.515,0.515,0.515,0.515,0.514,0.514,0.514,0.514,0.514,0.514,0.514,0.514,0.514,0.514,0.514,0.514,0.514,0.514,0.514,0.514,0.514,0.514,0.514,0.513,0.513,0.513,0.513,0.512,0.512,0.512,0.511,0.511,0.511,0.511,0.511,0.51,0.511,0.511,0.511,0.511,0.512,0.513,0.513,0.514,0.514,0.515,0.516,0.516,0.516,0.516,0.516,0.515,0.515,0.514,0.514,0.514,0.513,0.513,0.512,0.511,0.511,0.51,0.509,0.509,0.508,0.507,0.507,0.506,0.506,0.505,0.505,0.504,0.504,0.504,0.504,0.503,0.503,0.503,0.502,0.502,0.502,0.502,0.502,0.502,0.502,0.501,0.501,0.501,0.501,0.501,0.501,0.501,0.501,0.501,0.501,0.5,0.501,0.501,0.501,0.501,0.501,0.501,0.501,0.501,0.501,0.501,0.501,0.501,0.501,0.501,0.501,0.501,0.501,0.501,0.501,0.501,0.501,0.501,0.501,0.501,0.501,0.501,0.501,0.501,0.5,0.5,0.5,0.5,0.5,0.5,0.5,0.5,0.5,0.5,0.5,0.501,0.501,0.501,0.501,0.501,0.501,0.501,0.501,0.501,0.501,0.501,0.501,0.501,0.501,0.501,0.501,0.501,0.501,0.501,0.501,0.501,0.501,0.501,0.501,0.501,0.501,0.501,0.5,0.5,0.5,0.5,0.5,0.5,0.499,0.499,0.499,0.499,0.499,0.499,0.498,0.498,0.498,0.498,0.498,0.498,0.498,0.498,0.498
1.576,1.576,1.576,1.576,1.572,1.572,1.572,1.572,1.572,1.572,1.572,1.572,1.572,1.572,1.572,1.572,1.572,1.572,1.572,1.572,1.572,1.572,1.572,1.572,1.568,1.568,1.564,1.56,1.56,1.556,1.553,1.553,1.549,1.553,1.549,1.549,1.545,0,0,0,0,0,0,0,0,0,0,0,0,0,0,0,0,0,0,0,0,0.593,0.593,0.593,0.593,0.593,0.593,0.593,0.593,0.593,0.593,0.593,0.593,0.593,0.593,0.592,0.592,0.592,0.592,0.592,0.591,0.591,0.591,0.591,0.591,0.59,0.591,0.591,0.591,0.591,0.591,0.591,0.591,0.592,0.592,0.592,0.592,0.592,0.592,0.592,0.592,0.591,0.591,0.591,0.591,0.591,0.591,0.591,0.591,0.591,0.591,0.591,0.59,0.59,0.589,0.589,0.589,0.589,0.589,0.589,0.589,0.589,0.589,0.589,0.589,0.589,0.59,0.589,0.589,0.589,0.588,0.588,0.587,0.587,0.586,0.582,0.579,0.574,0,0,0,0.549,0.546,0.543,0.541,0.539,0.538,0.538,0.538,0.538,0.538,0.538,0.537,0.537,0.537,0.537,0.537,0.536,0.536,0.537,0.537,0.537,0.537,0.537,0.537,0.537,0.537,0.537,0.536,0.536,0.536,0.536,0.535,0.535,0.535,0.535,0.535,0.534,0.535,0,0,0,0,0,0,0,0,0,0.45,0.45,0.45,0.45,0.45,0.45,0.45,0.45,0.45,0.45,0.45,0.45,0.45,0.451,0.451,0.451,0.451,0.451,0.451,0.451,0.45,0.45,0.45,0.45,0.451,0.451,0.451,0.451,0.451,0.451,0.451,0.45,0.45,0.449,0.449,0.449,0.448,0.447,0.447,0.447,0.447,0.446,0.447,0.447,0.447,0.447,0.447,0.448,0.448,0.448,0.448,0.449,0.449,0.449,0.449,0.449,0.448,0.448,0.448,0.447,0.447,0.447,0.447,0.447,0.447,0.447,0.447,0.447,0.447,0.447,0.447,0.447,0.447,0.447,0.447,0.447,0.447,0.447,0.447,0.447,0.447,0.447,0.447,0.448,0.448,0.448,0.448,0.447,0.447,0.447,0.446,0.446,0.446,0.445,0.444,0.444,0.444,0.444,0.444,0.444,0.444,0.444,0.445,0.445,0.445,0.445,0.445,0.445,0.445,0.445,0.446,0.446,0.446,0.446,0.446,0.446,0.445,0.445,0.445,0.445,0.444,0.444,0.443,0.443,0.443,0.443,0.443,0.444,0.444,0.444,0.444,0.444,0.444,0.444,0.444,0.444,0.444,0.444,0.443,0.443,0.443,0.443,0.443,0.443,0.443,0.443,0.443,0.443,0.443,0.443,0.442,0.442,0.442,0.442,0.442,0.443,0.443,0.443,0.443,0.444,0,0,0.513,0.513,0.513,0.513,0.513,0.513,0.513,0.514,0.514,0.514,0.514,0.514,0.514,0.514,0.514,0.514,0.514,0.514,0.514,0.514,0.514,0.514,0.514,0.514,0.514,0.514,0.514,0.513,0.513,0.513,0.513,0.513,0.513,0.513,0.513,0.513,0.512,0.512,0.512,0.512,0.512,0.511,0.511,0.511,0.511,0.51,0.51,0.51,0.509,0.509,0.51,0.51,0.51,0.511,0.511,0.512,0.513,0.513,0.514,0.514,0.514,0.515,0.515,0.514,0.514,0.514,0.514,0.514,0.513,0.513,0.512,0.512,0.511,0.511,0.51,0.509,0.509,0.508,0.507,0.506,0.506,0.505,0.505,0.504,0.504,0.504,0.504,0.503,0.503,0.503,0.502,0.502,0.502,0.502,0.501,0.501,0.501,0.501,0.501,0.501,0.501,0.501,0.501,0.5,0.5,0.5,0.5,0.5,0.5,0.5,0.5,0.5,0.5,0.5,0.5,0.5,0.5,0.5,0.5,0.5,0.5,0.5,0.5,0.5,0.5,0.5,0.5,0.5,0.5,0.5,0.5,0.5,0.5,0.5,0.5,0.5,0.5,0.499,0.499,0.499,0.499,0.499,0.499,0.499,0.499,0.499,0.499,0.499,0.5,0.5,0.5,0.5,0.5,0.501,0.501,0.501,0.501,0.501,0.501,0.501,0.501,0.501,0.501,0.501,0.501,0.501,0.501,0.501,0.501,0.501,0.501,0.501,0.5,0.5,0.5,0.5,0.499,0.499,0.499,0.499,0.499,0.499,0.499,0.499,0.499,0.498,0.498,0.498,0.498,0.497,0.497,0.497,0.497,0.497,0.497,0.497,0.497
1.576,1.576,1.572,1.572,1.572,1.572,1.568,1.568,1.568,1.568,1.568,1.568,1.568,1.568,1.568,1.568,1.568,1.568,1.568,1.568,1.568,1.568,1.568,1.568,1.568,1.564,1.564,1.56,1.56,1.556,1.553,1.556,1.553,1.553,1.549,1.549,0,0,0,0,0,0,0,0,0,0,0,0,0,0,0,0,0,0,0,0,0,0.592,0.592,0.592,0.592,0.592,0.592,0.592,0.592,0.592,0.592,0.592,0.592,0.592,0.592,0.591,0.591,0.591,0.591,0.591,0.59,0.59,0.589,0.589,0.589,0.589,0.589,0.589,0.589,0.589,0.589,0.59,0.59,0.59,0.591,0.591,0.591,0.59,0.59,0.59,0.59,0.589,0.589,0.589,0.589,0.589,0.589,0.589,0.589,0.589,0.589,0.589,0.589,0.589,0.588,0.588,0.588,0.588,0.588,0.588,0.588,0.588,0.589,0.589,0.589,0.589,0.589,0.589,0.588,0.588,0.588,0.587,0.586,0.586,0.583,0.579,0.574,0,0,0,0.547,0.544,0.542,0.54,0.539,0.538,0.538,0.538,0.537,0.537,0.537,0.537,0.536,0.536,0.536,0.536,0.536,0.536,0.536,0.536,0.536,0.536,0.536,0.536,0.536,0.536,0.536,0.536,0.535,0.535,0.534,0.534,0.534,0.533,0.533,0.533,0.533,0,0,0,0,0,0,0,0,0,0,0,0.449,0.449,0.449,0.449,0.449,0.449,0.45,0.45,0.45,0.45,0.45,0.45,0.45,0.45,0.45,0.45,0.45,0.45,0.45,0.45,0.45,0.45,0.45,0.45,0.45,0.45,0.45,0.45,0.45,0.45,0.45,0.45,0.449,0.449,0.448,0.447,0.447,0.447,0.446,0.446,0.446,0.446,0.446,0.446,0.446,0.447,0.447,0.447,0.447,0.447,0.448,0.448,0.448,0.448,0.448,0.448,0.447,0.447,0.447,0.447,0.446,0.446,0.446,0.446,0.446,0.446,0.446,0.446,0.446,0.446,0.446,0.446,0.446,0.446,0.446,0.446,0.446,0.446,0.446,0.446,0.446,0.446,0.446,0.446,0.446,0.446,0.446,0.446,0.446,0.446,0.445,0.445,0.444,0.444,0.443,0.443,0.443,0.443,0.443,0.443,0.444,0.444,0.444,0.444,0.444,0.444,0.444,0.444,0.444,0.445,0.445,0.445,0.445,0.445,0.445,0.445,0.445,0.445,0.444,0.444,0.443,0.443,0.443,0.443,0.443,0.443,0.443,0.443,0.443,0.443,0.443,0.443,0.443,0.443,0.443,0.443,0.443,0.443,0.443,0.443,0.443,0.443,0.443,0.443,0.443,0.443,0.443,0.442,0.442,0.442,0.442,0.441,0.441,0.441,0.442,0.443,0.443,0.443,0.443,0.444,0,0,0.511,0.511,0.511,0.511,0.512,0.512,0.512,0.512,0.512,0.513,0.513,0.513,0.513,0.514,0.514,0.514,0.513,0.513,0.513,0.513,0.513,0.513,0.513,0.513,0.513,0.513,0.513,0.513,0.512,0.512,0.512,0.512,0.512,0.512,0.512,0.512,0.511,0.511,0.511,0.511,0.511,0.511,0.51,0.51,0.509,0.509,0.509,0.509,0.509,0.509,0.509,0.509,0.509,0.51,0.511,0.511,0.511,0.512,0.512,0.513,0.513,0.514,0.514,0.513,0.513,0.513,0.513,0.513,0.512,0.512,0.511,0.511,0.511,0.51,0.509,0.509,0.508,0.507,0.506,0.506,0.505,0.504,0.504,0.504,0.503,0.503,0.503,0.502,0.502,0.502,0.502,0.501,0.501,0.501,0.501,0.501,0.501,0.501,0.501,0.5,0.5,0.5,0.5,0.5,0.499,0.499,0.499,0.499,0.499,0.499,0.499,0.499,0.499,0.499,0.499,0.499,0.499,0.499,0.499,0.5,0.5,0.5,0.5,0.5,0.499,0.499,0.499,0.499,0.499,0.499,0.499,0.499,0.499,0.499,0.499,0.499,0.499,0.499,0.499,0.498,0.498,0.498,0.498,0.498,0.498,0.498,0.499,0.499,0.499,0.499,0.499,0.499,0.5,0.5,0.5,0.5,0.5,0.5,0.5,0.5,0.5,0.501,0.501,0.501,0.501,0.501,0.501,0.501,0.5,0.5,0.5,0.5,0.5,0.499,0.499,0.499,0.499,0.499,0.499,0.499,0.499,0.498,0.498,0.498,0.498,0.497,0.497,0.497,0.497,0.497,0.497,0.496,0.496,0.496,0.496,0.496,0.496
1.572,1.572,1.568,1.568,1.568,1.568,1.568,1.568,1.568,1.568,1.568,1.568,1.568,1.568,1.568,1.568,1.568,1.568,1.568,1.568,1.568,1.568,1.568,1.564,1.564,1.564,1.56,1.56,1.556,1.556,1.553,1.553,1.553,1.549,1.553,1.549,0,0,0,0,0,0,0,0,0,0,0,0,0,0,0,0,0,0,0,0,0,0.59,0.59,0.59,0.59,0.591,0.591,0.591,0.591,0.591,0.591,0.591,0.591,0.591,0.591,0.591,0.59,0.59,0.59,0.589,0.589,0.589,0.589,0.589,0.588,0.588,0.588,0.588,0.588,0.588,0.588,0.589,0.589,0.589,0.589,0.589,0.589,0.589,0.589,0.588,0.588,0.588,0.588,0.588,0.588,0.588,0.588,0.588,0.588,0.588,0.588,0.588,0.588,0.587,0.587,0.587,0.587,0.587,0.587,0.587,0.588,0.588,0.588,0.588,0.588,0.588,0.588,0.588,0.587,0.587,0.586,0.585,0.584,0.582,0.579,0.574,0,0,0,0.548,0.543,0.54,0.538,0.537,0.537,0.537,0.536,0.536,0.536,0.536,0.536,0.536,0.535,0.535,0.535,0.535,0.535,0.534,0.535,0.535,0.535,0.535,0.535,0.534,0.534,0.534,0.534,0.534,0.534,0.534,0.533,0.533,0.532,0.531,0.531,0.531,0.53,0.53,0.53,0.53,0,0,0,0,0,0,0,0.449,0.448,0.449,0.449,0.449,0.449,0.449,0.449,0.449,0.449,0.449,0.449,0.45,0.45,0.45,0.45,0.449,0.449,0.449,0.449,0.449,0.449,0.449,0.449,0.449,0.449,0.449,0.449,0.449,0.45,0.449,0.449,0.449,0.448,0.448,0.447,0.447,0.446,0.446,0.446,0.446,0.446,0.446,0.446,0.446,0.446,0.446,0.446,0.447,0.447,0.447,0.447,0.447,0.447,0.447,0.447,0.447,0.447,0.446,0.446,0.446,0.446,0.446,0.446,0.446,0.446,0.445,0.445,0.445,0.445,0.445,0.445,0.445,0.445,0.445,0.445,0.445,0.445,0.445,0.445,0.445,0.445,0.445,0.445,0.445,0.446,0.446,0.446,0.445,0.445,0.445,0.444,0.443,0.443,0.442,0.442,0.441,0.442,0.442,0.442,0.442,0.442,0.443,0.443,0.443,0.443,0.443,0.443,0.444,0.444,0.444,0.444,0.444,0.444,0.444,0.444,0.444,0.444,0.444,0.443,0.443,0.443,0.443,0.442,0.442,0.442,0.442,0.442,0.442,0.442,0.442,0.442,0.442,0.442,0.442,0.442,0.442,0.442,0.442,0.442,0.442,0.442,0.443,0.442,0.442,0.442,0.442,0.442,0.442,0.441,0.441,0.441,0.441,0.441,0.441,0.441,0.442,0.442,0.442,0.443,0.444,0,0.51,0.51,0.51,0.511,0.511,0.511,0.511,0.511,0.511,0.512,0.512,0.512,0.512,0.512,0.513,0.513,0.513,0.513,0.512,0.512,0.512,0.512,0.512,0.512,0.512,0.512,0.512,0.512,0.512,0.511,0.511,0.511,0.511,0.511,0.511,0.511,0.511,0.511,0.51,0.51,0.51,0.51,0.51,0.509,0.509,0.509,0.508,0.508,0.508,0.508,0.508,0.508,0.508,0.509,0.509,0.51,0.51,0.511,0.511,0.511,0.512,0.512,0.512,0.512,0.512,0.512,0.512,0.512,0.511,0.511,0.511,0.511,0.51,0.51,0.509,0.509,0.508,0.507,0.506,0.506,0.505,0.504,0.504,0.503,0.503,0.502,0.502,0.502,0.501,0.501,0.501,0.501,0.501,0.501,0.501,0.5,0.5,0.5,0.5,0.5,0.5,0.499,0.499,0.499,0.499,0.499,0.499,0.498,0.498,0.498,0.498,0.498,0.498,0.498,0.498,0.499,0.499,0.499,0.499,0.499,0.499,0.499,0.499,0.499,0.499,0.499,0.499,0.499,0.499,0.499,0.499,0.499,0.498,0.498,0.498,0.498,0.498,0.498,0.498,0.498,0.497,0.497,0.497,0.497,0.497,0.497,0.497,0.497,0.498,0.498,0.498,0.499,0.499,0.499,0.499,0.499,0.499,0.499,0.5,0.5,0.5,0.5,0.5,0.5,0.5,0.5,0.5,0.5,0.5,0.5,0.499,0.499,0.499,0.499,0.499,0.499,0.499,0.498,0.498,0.498,0.498,0.498,0.497,0.497,0.497,0.497,0.497,0.497,0.496,0.496,0.496,0.496,0.495,0.495,0.495,0.495,0.495,0.495
