0.478,0.478,0.478,0.478,0.478,0.478,0.478,0.478,0.478,0.478,0.478,0.478,0.478,0.478,0.478,0.478,0.478,0.478,0.479,0.479,0.48,0.48,0.48,0.48,0.479,0.479,0.478,0.478,0.477,0,0.469,0,0.458,0.452,0.449,0.446,0.445,0.443,0.442,0.441,0.44,0.44,0.439,0.439,0.439,0.439,0.439,0.439,0.439,0.44,0.44,0.44,0.441,0.441,0.441,0.442,0.442,0.443,0.443,0.443,0.443,0.443,0.443,0.444,0.444,0.444,0.444,0.444,0.444,0.444,0.444,0.444,0.444,0.444,0.444,0.444,0.445,0.445,0.445,0.445,0.446,0.446,0.446,0.446,0.446,0.447,0.447,0.447,0.447,0.447,0.447,0.448,0.448,0.448,0.448,0.449,0.449,0.449,0.45,0.45,0.451,0.451,0.451,0.451,0.451,0.451,0.451,0.451,0.451,0.451,0.451,0.451,0.451,0.451,0.451,0.451,0.451,0.451,0.451,0.451,0.451,0.451,0.451,0.452,0.452,0.452,0.452,0.453,0.453,0.453,0.453,0.453,0.454,0.454,0.454,0.454,0.454,0.454,0.455,0.455,0.455,0.455,0.455,0.455,0.455,0.456,0.456,0.456,0.456,0.456,0.456,0.456,0.456,0.456,0.457,0.457,0.457,0.457,0.458,0.458,0.458,0.458,0.458,0.458,0.458,0.458,0.458,0.459,0.459,0.459,0.459,0.459,0.46,0.46,0.46,0.461,0.461,0.461,0.461,0.462,0.462,0.462,0.462,0.462,0.462,0.462,0.463,0.463,0.463,0.463,0.463,0.464,0.464,0.464,0.464,0.464,0.464,0.464,0.464,0.465,0.465,0.465,0.465,0.465,0.465,0.465,0.465,0.465,0.465,0.465,0.465,0.465,0.465,0.465,0.466,0.466,0.466,0.466,0.467,0.467,0.467,0.467,0.468,0.468,0.468,0.469,0.469,0.469,0.469,0.469,0.469,0.47,0.469,0.469,0.47,0.47,0.47,0.47,0.471,0.471,0.472,0.473,0.473,0.474,0.474,0.474,0.474,0.475,0.475,0.475,0.474,0.474,0.474,0.474,0.474,0.474,0.474,0.474,0.474,0.474,0.474,0.474,0.474,0.474,0.474,0.474,0.475,0.475,0.475,0.476,0.476,0.476,0.476,0.477,0.477,0.477,0.477,0.477,0.477,0.477,0.477,0.477,0.477,0.477,0.477,0.477,0.477,0.477,0.477,0.478,0.478,0.478,0.479,0.479,0.48,0.48,0.481,0.481,0.481,0.481,0.481,0.482,0.481,0.482,0.482,0.482,0.482,0.482,0.481,0.481,0.481,0.481,0.481,0.481,0.481,0.481,0.481,0.481,0.481,0.481,0.482,0.482,0.482,0.483,0.483,0.484,0.485,0.486,0.489,0.492,0.496,0.501,0,0,0.511,0.514,0.514,0.513,0.512,0.511,0.509,0.508,0.506,0.505,0.504,0.502,0.501,0.499,0.498,0.497,0.496,0.495,0.494,0.493,0.492,0.491,0.491,0.49,0.49,0.49,0.49,0.489,0.489,0.489,0.489,0.489,0.489,0.489,0.489,0.489,0.489,0.489,0.489,0.489,0.489,0.489,0.489,0.489,0.49,0.49,0.49,0.49,0.49,0.49,0.49,0.49,0.49,0.49,0.49,0.49,0.49,0.491,0.491,0.491,0.491,0.492,0.492,0.493,0.493,0.494,0.494,0.495,0.495,0.495,0.495,0.495,0.495,0.495,0.495,0.495,0.496,0.496,0.496,0.497,0.497,0.497,0.497,0.498,0.498,0.499,0.499,0.499,0.499,0.5,0.5,0.5,0.501,0.501,0.501,0.501,0.502,0.502,0.502,0.503,0.503,0.503,0.503,0.504,0.504,0.504,0.504,0.504,0.504,0.504,0.504,0.505,0.505,0.505,0.505,0.505,0.505,0.505,0.505,0.505,0.505,0.505,0.506,0.506,0.506,0.506,0.506,0.506,0.506,0.506,0.506,0.507,0.507,0.508,0.508,0.509,0.509,0.509,0.51,0.511,0.511,0.511,0.512,0.512,0.513,0.513,0.514,0.514,0.514,0.514,0.514,0.514,0.514,0.514,0.514,0.514,0.515,0.514,0.514,0.514,0.514,0.514,0.514,0.514,0.513,0.513,0.512,0.512,0.511,0.511,0.51,0.51,0.509,0.508,0.507,0.506,0.505,0.504,0.503,0.502,0.502,0.502,0.501,0.503,0.504,0.506,0.509,0.511,0.513,0.515,0.517,0.518,0.52,0.521,0.521,0.521,0.521,0.521,0.522,0.522,0.522,0.522,0.522,0.522,0.522,0.522,0.522,0.521,0.521,0.521,0.522
0.477,0.477,0.477,0.477,0.477,0.478,0.478,0.478,0.477,0.477,0.477,0.477,0.477,0.477,0.477,0.477,0.478,0.478,0.478,0.478,0.479,0.479,0.479,0.478,0.478,0.478,0.477,0.477,0.475,0.473,0.468,0.463,0.457,0.452,0.448,0.446,0.444,0.443,0.442,0.44,0.439,0.439,0.439,0.439,0.439,0.439,0.438,0.439,0.439,0.439,0.439,0.439,0.439,0.44,0.44,0.441,0.441,0.441,0.442,0.442,0.442,0.442,0.443,0.443,0.443,0.443,0.443,0.443,0.443,0.443,0.443,0.443,0.443,0.443,0.443,0.443,0.444,0.444,0.444,0.444,0.444,0.445,0.445,0.445,0.446,0.446,0.446,0.446,0.446,0.446,0.446,0.447,0.447,0.447,0.447,0.448,0.448,0.448,0.449,0.449,0.45,0.45,0.45,0.45,0.45,0.45,0.451,0.451,0.451,0.45,0.45,0.45,0.45,0.45,0.45,0.45,0.45,0.45,0.45,0.45,0.45,0.45,0.451,0.451,0.451,0.451,0.451,0.452,0.452,0.452,0.453,0.453,0.453,0.453,0.453,0.453,0.454,0.454,0.454,0.454,0.454,0.454,0.454,0.455,0.455,0.455,0.455,0.455,0.455,0.456,0.456,0.456,0.456,0.456,0.456,0.456,0.456,0.457,0.457,0.457,0.457,0.457,0.457,0.457,0.458,0.458,0.458,0.458,0.458,0.458,0.458,0.458,0.458,0.459,0.46,0.46,0.46,0.46,0.46,0.461,0.461,0.461,0.461,0.461,0.461,0.461,0.461,0.461,0.462,0.462,0.462,0.463,0.463,0.463,0.463,0.463,0.463,0.464,0.464,0.464,0.464,0.464,0.464,0.465,0.465,0.465,0.465,0.465,0.464,0.464,0.464,0.464,0.464,0.465,0.465,0.465,0.465,0.465,0.465,0.466,0.466,0.466,0.466,0.467,0.467,0.468,0.468,0.468,0.468,0.468,0.468,0.468,0.468,0.468,0.468,0.469,0.469,0.469,0.47,0.47,0.471,0.471,0.472,0.473,0.473,0.473,0.473,0.474,0.474,0.473,0.473,0.473,0.473,0.473,0.473,0.473,0.473,0.473,0.473,0.473,0.473,0.473,0.473,0.473,0.473,0.473,0.474,0.474,0.474,0.475,0.475,0.475,0.476,0.476,0.476,0.476,0.476,0.476,0.476,0.476,0.476,0.476,0.476,0.475,0.476,0.476,0.476,0.476,0.476,0.477,0.477,0.477,0.478,0.478,0.478,0.479,0.48,0.48,0.48,0.48,0.48,0.481,0.481,0.481,0.481,0.481,0.481,0.481,0.481,0.48,0.48,0.48,0.48,0.48,0.48,0.48,0.48,0.48,0.48,0.481,0.481,0.481,0.481,0.481,0.482,0.483,0.484,0.485,0.488,0.491,0.495,0.5,0,0,0,0.513,0.514,0.513,0.511,0.511,0.509,0.507,0.506,0.504,0.503,0.502,0.5,0.499,0.498,0.497,0.495,0.494,0.493,0.492,0.491,0.491,0.49,0.49,0.489,0.489,0.489,0.488,0.488,0.488,0.488,0.488,0.488,0.488,0.488,0.488,0.488,0.488,0.488,0.488,0.488,0.488,0.488,0.488,0.488,0.489,0.489,0.489,0.489,0.489,0.489,0.489,0.489,0.489,0.49,0.49,0.49,0.49,0.49,0.49,0.491,0.491,0.491,0.492,0.492,0.493,0.493,0.493,0.493,0.493,0.494,0.494,0.494,0.494,0.494,0.494,0.495,0.495,0.495,0.495,0.496,0.496,0.496,0.497,0.497,0.497,0.498,0.498,0.498,0.499,0.499,0.499,0.499,0.5,0.5,0.5,0.501,0.501,0.501,0.501,0.501,0.502,0.502,0.502,0.502,0.502,0.503,0.503,0.503,0.503,0.503,0.504,0.504,0.504,0.504,0.504,0.504,0.504,0.504,0.504,0.504,0.504,0.504,0.504,0.505,0.505,0.505,0.505,0.505,0.505,0.505,0.506,0.506,0.506,0.507,0.507,0.508,0.508,0.509,0.509,0.51,0.51,0.511,0.511,0.511,0.512,0.512,0.512,0.513,0.513,0.513,0.513,0.513,0.513,0.513,0.514,0.514,0.514,0.514,0.513,0.513,0.513,0.513,0.512,0.512,0.512,0.511,0.511,0.511,0.51,0.51,0.509,0.509,0.508,0.507,0.506,0.505,0.504,0.503,0.502,0.501,0.501,0.501,0.501,0.502,0.504,0.506,0.508,0.51,0.512,0.514,0.516,0.518,0.519,0.519,0.52,0.52,0.52,0.521,0.521,0.521,0.521,0.521,0.521,0.521,0.521,0.521,0.521,0.52,0.52,0.521
0.475,0.476,0.476,0.476,0.476,0.477,0.477,0.477,0.477,0.477,0.477,0.477,0.477,0.477,0.477,0.477,0.477,0.477,0.477,0.478,0.478,0.478,0.478,0.478,0.477,0.477,0.477,0.475,0.475,0.471,0.468,0.463,0.457,0.452,0.448,0.445,0.443,0.442,0.441,0.44,0.439,0.438,0.437,0.438,0.438,0.438,0.438,0.438,0.438,0.438,0.438,0.438,0.439,0.439,0.439,0.44,0.44,0.44,0.44,0.441,0.441,0.441,0.442,0.441,0.441,0.442,0.442,0.442,0.442,0.442,0.442,0.442,0.442,0.442,0.442,0.442,0.443,0.443,0.443,0.443,0.443,0.444,0.444,0.444,0.445,0.445,0.445,0.445,0.446,0.446,0.446,0.446,0.446,0.446,0.447,0.447,0.447,0.448,0.448,0.448,0.449,0.449,0.449,0.449,0.45,0.45,0.45,0.45,0.45,0.45,0.449,0.449,0.449,0.45,0.45,0.45,0.45,0.449,0.449,0.449,0.45,0.45,0.45,0.45,0.45,0.45,0.451,0.451,0.451,0.452,0.452,0.452,0.452,0.453,0.453,0.453,0.453,0.453,0.453,0.453,0.454,0.454,0.454,0.454,0.454,0.455,0.455,0.455,0.455,0.455,0.455,0.455,0.455,0.455,0.456,0.456,0.456,0.456,0.456,0.456,0.456,0.456,0.456,0.457,0.456,0.457,0.457,0.457,0.457,0.457,0.457,0.457,0.458,0.458,0.458,0.459,0.459,0.459,0.46,0.46,0.46,0.46,0.46,0.46,0.46,0.46,0.46,0.46,0.461,0.461,0.461,0.462,0.462,0.462,0.462,0.462,0.463,0.463,0.463,0.463,0.463,0.464,0.464,0.464,0.464,0.464,0.464,0.464,0.464,0.463,0.463,0.464,0.464,0.464,0.464,0.464,0.464,0.464,0.464,0.465,0.465,0.465,0.465,0.466,0.466,0.466,0.467,0.467,0.467,0.467,0.467,0.467,0.467,0.467,0.467,0.467,0.468,0.468,0.468,0.469,0.469,0.47,0.471,0.471,0.471,0.472,0.472,0.472,0.472,0.472,0.472,0.472,0.471,0.471,0.471,0.472,0.471,0.472,0.472,0.472,0.472,0.472,0.472,0.472,0.472,0.472,0.473,0.473,0.474,0.474,0.474,0.475,0.475,0.475,0.475,0.475,0.475,0.475,0.475,0.475,0.475,0.475,0.475,0.475,0.475,0.475,0.475,0.475,0.475,0.475,0.475,0.476,0.476,0.477,0.477,0.478,0.478,0.478,0.479,0.479,0.48,0.48,0.48,0.48,0.48,0.48,0.48,0.48,0.48,0.48,0.479,0.479,0.479,0.479,0.479,0.479,0.479,0.479,0.48,0.48,0.48,0.48,0.48,0.481,0.481,0.482,0.483,0.484,0.487,0.491,0.494,0.499,0.503,0,0,0.513,0.513,0.513,0.511,0.51,0.508,0.506,0.505,0.504,0.502,0.501,0.5,0.499,0.497,0.496,0.495,0.494,0.493,0.492,0.491,0.49,0.49,0.489,0.489,0.488,0.488,0.488,0.488,0.488,0.487,0.487,0.487,0.487,0.487,0.487,0.487,0.487,0.487,0.487,0.487,0.487,0.487,0.488,0.488,0.488,0.488,0.488,0.488,0.488,0.488,0.488,0.489,0.489,0.489,0.489,0.489,0.489,0.489,0.49,0.49,0.49,0.491,0.491,0.491,0.491,0.492,0.492,0.492,0.492,0.492,0.493,0.493,0.493,0.493,0.493,0.493,0.493,0.494,0.494,0.495,0.495,0.495,0.495,0.496,0.496,0.497,0.497,0.497,0.498,0.498,0.498,0.499,0.499,0.499,0.499,0.499,0.5,0.5,0.5,0.5,0.501,0.501,0.501,0.501,0.501,0.501,0.501,0.501,0.502,0.502,0.502,0.502,0.502,0.503,0.503,0.503,0.503,0.503,0.503,0.503,0.504,0.504,0.504,0.504,0.504,0.504,0.504,0.504,0.504,0.504,0.504,0.505,0.505,0.506,0.506,0.506,0.507,0.507,0.508,0.509,0.509,0.509,0.51,0.51,0.511,0.511,0.511,0.511,0.511,0.512,0.512,0.512,0.512,0.512,0.512,0.512,0.512,0.512,0.512,0.512,0.512,0.512,0.511,0.511,0.511,0.511,0.51,0.51,0.509,0.509,0.509,0.508,0.507,0.506,0.505,0.504,0.504,0.502,0.502,0.501,0.5,0.5,0.5,0.501,0.502,0.503,0.506,0.508,0.509,0.511,0.514,0.515,0.517,0.518,0.519,0.519,0.519,0.519,0.519,0.519,0.519,0.52,0.52,0.52,0.52,0.52,0.519,0.519,0.519,0.519
0.474,0.475,0.475,0.475,0.475,0.475,0.476,0.476,0.476,0.476,0.476,0.476,0.476,0.476,0.476,0.476,0.476,0.477,0.477,0.477,0.477,0.477,0.477,0.477,0.477,0.476,0.476,0.474,0.474,0.471,0,0,0,0.453,0,0.446,0.443,0.442,0.44,0.439,0.438,0.437,0.437,0.437,0.437,0.437,0.437,0.437,0.437,0.437,0.437,0.438,0.438,0.438,0.439,0.439,0.439,0.439,0.439,0.44,0.44,0.44,0.441,0.44,0.44,0.441,0.441,0.441,0.441,0.441,0.441,0.441,0.441,0.441,0.441,0.441,0.442,0.442,0.442,0.442,0.442,0.443,0.443,0.443,0.444,0.444,0.444,0.445,0.445,0.445,0.445,0.445,0.446,0.446,0.446,0.446,0.446,0.447,0.447,0.447,0.448,0.448,0.448,0.448,0.449,0.449,0.449,0.449,0.449,0.449,0.449,0.448,0.448,0.449,0.449,0.449,0.449,0.449,0.449,0.449,0.449,0.449,0.449,0.449,0.449,0.449,0.45,0.45,0.451,0.451,0.451,0.451,0.452,0.452,0.452,0.452,0.452,0.452,0.453,0.453,0.453,0.453,0.453,0.454,0.454,0.454,0.454,0.454,0.454,0.455,0.455,0.455,0.455,0.455,0.455,0.455,0.455,0.455,0.455,0.455,0.455,0.455,0.455,0.456,0.456,0.456,0.456,0.456,0.456,0.456,0.456,0.457,0.457,0.457,0.458,0.458,0.458,0.458,0.459,0.458,0.459,0.459,0.458,0.458,0.458,0.459,0.459,0.459,0.46,0.46,0.46,0.461,0.461,0.461,0.461,0.462,0.462,0.462,0.462,0.463,0.463,0.463,0.463,0.463,0.463,0.463,0.463,0.463,0.463,0.463,0.463,0.463,0.463,0.463,0.463,0.463,0.464,0.463,0.464,0.464,0.464,0.464,0.465,0.465,0.465,0.465,0.466,0.466,0.466,0.466,0.466,0.466,0.466,0.466,0.466,0.466,0.466,0.467,0.467,0.468,0.469,0.469,0.47,0.47,0.47,0.47,0.47,0.471,0.47,0.47,0.47,0.47,0.47,0.47,0.47,0.47,0.47,0.47,0.47,0.47,0.471,0.471,0.471,0.471,0.471,0.471,0.471,0.472,0.473,0.473,0.474,0.474,0.474,0.474,0.474,0.474,0.474,0.474,0.474,0.474,0.474,0.474,0.474,0.474,0.474,0.474,0.474,0.474,0.474,0.474,0.474,0.475,0.475,0.475,0.476,0.476,0.477,0.477,0.477,0.478,0.478,0.478,0.478,0.479,0.479,0.479,0.479,0.479,0.479,0.479,0.478,0.478,0.478,0.478,0.478,0.478,0.478,0.478,0.478,0.478,0.479,0.479,0.479,0.48,0.48,0.481,0.482,0.484,0.487,0.491,0.495,0.499,0.504,0.509,0.512,0.514,0.514,0.512,0.511,0.509,0.508,0.506,0.504,0.503,0.502,0.5,0.499,0.498,0.497,0.496,0.495,0.493,0.492,0.491,0.491,0.49,0.489,0.489,0.488,0.488,0.487,0.487,0.487,0.486,0.486,0.486,0.486,0.486,0.486,0.486,0.486,0.486,0.486,0.486,0.486,0.486,0.486,0.486,0.487,0.487,0.487,0.487,0.487,0.488,0.488,0.488,0.488,0.488,0.488,0.488,0.488,0.488,0.488,0.489,0.489,0.49,0.49,0.49,0.49,0.491,0.491,0.491,0.491,0.491,0.491,0.491,0.491,0.491,0.492,0.492,0.492,0.492,0.493,0.493,0.493,0.494,0.494,0.494,0.495,0.495,0.495,0.496,0.496,0.497,0.497,0.497,0.497,0.498,0.498,0.498,0.498,0.499,0.499,0.499,0.499,0.499,0.499,0.499,0.499,0.5,0.5,0.5,0.5,0.501,0.501,0.501,0.501,0.501,0.501,0.502,0.502,0.502,0.502,0.502,0.502,0.503,0.503,0.503,0.503,0.503,0.503,0.503,0.503,0.503,0.503,0.504,0.504,0.504,0.504,0.505,0.505,0.505,0.506,0.506,0.507,0.507,0.508,0.509,0.509,0.509,0.51,0.51,0.51,0.51,0.511,0.511,0.511,0.511,0.511,0.511,0.511,0.511,0.511,0.511,0.511,0.511,0.511,0.511,0.511,0.51,0.51,0.509,0.509,0.509,0.509,0.508,0.508,0.507,0.506,0.505,0.504,0.504,0.502,0.502,0.501,0.5,0.499,0.499,0.499,0.5,0.501,0.503,0.504,0.506,0.509,0.511,0.512,0.514,0.516,0.517,0.517,0.518,0.518,0.518,0.518,0.518,0.518,0.518,0.518,0.518,0.518,0.518,0.518,0.518,0.518
0.473,0.473,0.474,0.474,0.474,0.474,0.475,0.475,0.475,0.475,0.475,0.475,0.475,0.475,0.475,0.475,0.476,0.476,0.476,0.476,0.476,0.477,0.477,0.476,0.476,0.476,0.475,0.474,0.473,0.47,0.467,0.463,0.458,0.454,0.449,0.446,0.443,0.441,0.44,0.439,0.438,0.436,0.436,0.436,0.436,0.436,0.436,0.436,0.436,0.436,0.437,0.437,0.437,0.437,0.438,0.438,0.438,0.439,0.439,0.439,0.439,0.439,0.439,0.439,0.439,0.44,0.44,0.44,0.44,0.44,0.44,0.44,0.44,0.44,0.44,0.44,0.44,0.441,0.441,0.441,0.441,0.442,0.442,0.442,0.443,0.443,0.444,0.444,0.444,0.444,0.445,0.445,0.445,0.445,0.445,0.446,0.446,0.446,0.446,0.446,0.447,0.447,0.447,0.447,0.447,0.447,0.448,0.448,0.448,0.448,0.448,0.448,0.448,0.448,0.448,0.448,0.448,0.448,0.448,0.448,0.448,0.448,0.448,0.448,0.448,0.449,0.449,0.45,0.45,0.45,0.451,0.451,0.451,0.451,0.451,0.451,0.452,0.452,0.452,0.452,0.452,0.453,0.453,0.453,0.453,0.453,0.454,0.454,0.454,0.454,0.454,0.454,0.454,0.454,0.454,0.454,0.454,0.454,0.454,0.454,0.454,0.455,0.455,0.455,0.455,0.455,0.455,0.455,0.456,0.456,0.456,0.456,0.456,0.456,0.457,0.457,0.457,0.457,0.458,0.458,0.458,0.457,0.457,0.457,0.458,0.458,0.458,0.458,0.458,0.459,0.459,0.46,0.46,0.46,0.46,0.461,0.461,0.461,0.462,0.462,0.462,0.462,0.462,0.462,0.462,0.463,0.463,0.462,0.462,0.462,0.462,0.462,0.462,0.462,0.462,0.462,0.463,0.463,0.463,0.463,0.463,0.464,0.464,0.464,0.464,0.465,0.465,0.465,0.465,0.465,0.465,0.465,0.465,0.465,0.465,0.465,0.465,0.466,0.466,0.466,0.467,0.468,0.468,0.469,0.469,0.469,0.469,0.469,0.469,0.469,0.469,0.469,0.469,0.469,0.469,0.469,0.469,0.469,0.469,0.469,0.469,0.47,0.47,0.47,0.47,0.47,0.47,0.471,0.471,0.472,0.473,0.473,0.473,0.473,0.474,0.474,0.474,0.473,0.473,0.473,0.473,0.473,0.473,0.473,0.473,0.473,0.473,0.473,0.473,0.473,0.473,0.473,0.474,0.474,0.474,0.475,0.475,0.476,0.476,0.477,0.477,0.477,0.477,0.478,0.478,0.478,0.478,0.478,0.478,0.478,0.478,0.478,0.478,0.478,0.478,0.477,0.477,0.477,0.478,0.478,0.478,0.478,0.478,0.479,0.48,0.48,0.481,0.484,0.488,0.491,0.495,0.5,0.505,0.509,0.513,0.514,0.513,0.512,0.511,0.509,0.507,0.506,0.504,0.502,0.501,0.5,0.499,0.497,0.496,0.495,0.494,0.493,0.492,0.491,0.49,0.489,0.489,0.488,0.488,0.487,0.487,0.486,0.486,0.486,0.486,0.485,0.485,0.485,0.485,0.484,0.484,0.484,0.485,0.485,0.485,0.485,0.485,0.486,0.486,0.486,0.486,0.486,0.486,0.486,0.487,0.487,0.487,0.487,0.487,0.487,0.488,0.488,0.488,0.488,0.488,0.488,0.489,0.489,0.489,0.49,0.49,0.49,0.49,0.49,0.49,0.49,0.49,0.491,0.491,0.491,0.491,0.491,0.492,0.492,0.492,0.493,0.493,0.493,0.494,0.494,0.494,0.495,0.495,0.495,0.496,0.496,0.496,0.497,0.497,0.497,0.497,0.497,0.497,0.497,0.498,0.498,0.498,0.498,0.498,0.499,0.499,0.499,0.499,0.499,0.5,0.5,0.5,0.501,0.501,0.501,0.501,0.501,0.501,0.501,0.501,0.502,0.502,0.502,0.502,0.502,0.502,0.502,0.502,0.502,0.502,0.503,0.503,0.503,0.503,0.504,0.504,0.504,0.505,0.505,0.506,0.506,0.506,0.507,0.507,0.508,0.508,0.509,0.509,0.509,0.509,0.509,0.509,0.509,0.51,0.51,0.51,0.51,0.51,0.51,0.51,0.51,0.51,0.51,0.509,0.509,0.509,0.509,0.509,0.508,0.508,0.508,0.507,0.506,0.506,0.505,0.504,0.504,0.502,0.501,0.501,0.499,0.499,0.498,0.498,0.499,0.499,0.5,0.502,0.504,0.506,0.507,0.509,0.511,0.513,0.514,0.514,0.515,0.516,0.516,0.517,0.517,0.517,0.517,0.517,0.517,0.517,0.517,0.517,0.517,0.517
0.472,0.472,0.473,0.473,0.473,0.474,0.474,0.474,0.474,0.474,0.474,0.474,0.474,0.474,0.475,0.475,0.475,0.475,0.475,0.476,0.475,0.476,0.476,0.475,0.475,0.475,0.474,0.473,0.473,0.47,0.468,0.464,0,0.454,0.449,0.446,0.442,0.441,0.439,0.438,0.437,0.436,0.436,0.435,0.435,0.435,0.436,0.436,0.436,0.436,0.436,0.436,0.436,0.437,0.437,0.437,0.438,0.438,0.438,0.438,0.438,0.439,0.439,0.439,0.439,0.439,0.439,0.439,0.439,0.439,0.439,0.439,0.439,0.439,0.439,0.439,0.439,0.44,0.44,0.44,0.44,0.44,0.441,0.441,0.442,0.442,0.443,0.443,0.443,0.443,0.444,0.444,0.444,0.444,0.444,0.445,0.445,0.445,0.445,0.446,0.446,0.446,0.446,0.446,0.446,0.446,0.447,0.447,0.447,0.447,0.447,0.447,0.447,0.447,0.447,0.447,0.447,0.447,0.447,0.447,0.447,0.447,0.447,0.447,0.448,0.448,0.448,0.449,0.449,0.45,0.45,0.45,0.45,0.451,0.451,0.451,0.451,0.451,0.451,0.451,0.452,0.452,0.452,0.452,0.452,0.453,0.453,0.453,0.453,0.454,0.454,0.454,0.453,0.454,0.453,0.454,0.454,0.453,0.454,0.454,0.454,0.454,0.454,0.454,0.454,0.455,0.455,0.455,0.455,0.455,0.455,0.455,0.456,0.456,0.456,0.456,0.457,0.457,0.457,0.457,0.457,0.457,0.457,0.457,0.457,0.457,0.457,0.457,0.457,0.458,0.458,0.458,0.459,0.459,0.46,0.46,0.46,0.46,0.461,0.461,0.461,0.461,0.461,0.462,0.462,0.462,0.462,0.462,0.462,0.461,0.461,0.462,0.462,0.462,0.461,0.462,0.462,0.462,0.462,0.463,0.463,0.463,0.463,0.463,0.464,0.464,0.464,0.464,0.464,0.464,0.464,0.464,0.464,0.464,0.464,0.465,0.465,0.465,0.465,0.466,0.466,0.466,0.467,0.467,0.468,0.468,0.468,0.468,0.468,0.468,0.468,0.468,0.468,0.468,0.468,0.468,0.468,0.468,0.468,0.468,0.468,0.469,0.469,0.469,0.469,0.469,0.469,0.47,0.47,0.471,0.471,0.472,0.472,0.472,0.473,0.473,0.473,0.473,0.472,0.472,0.472,0.472,0.472,0.472,0.472,0.472,0.472,0.471,0.472,0.472,0.472,0.472,0.473,0.473,0.473,0.474,0.474,0.474,0.475,0.475,0.476,0.476,0.476,0.476,0.477,0.477,0.477,0.477,0.477,0.477,0.477,0.477,0.477,0.477,0.477,0.477,0.477,0.477,0.477,0.477,0.477,0.477,0.477,0.478,0.478,0.479,0.481,0.484,0.488,0.492,0.496,0,0.506,0.51,0.513,0.514,0.514,0.512,0.511,0.509,0.507,0.505,0.504,0.502,0.501,0.499,0.498,0.497,0.496,0.495,0.493,0.492,0.491,0.49,0.49,0.489,0.488,0.488,0.487,0.486,0.486,0.486,0.485,0.485,0.485,0.484,0.484,0.484,0.484,0.484,0.484,0.483,0.484,0.484,0.484,0.484,0.484,0.485,0.485,0.485,0.485,0.485,0.485,0.486,0.486,0.486,0.486,0.486,0.486,0.486,0.486,0.486,0.487,0.487,0.487,0.487,0.488,0.488,0.488,0.488,0.489,0.489,0.489,0.489,0.489,0.489,0.49,0.49,0.49,0.49,0.49,0.49,0.491,0.491,0.491,0.491,0.492,0.492,0.493,0.493,0.493,0.494,0.494,0.494,0.495,0.495,0.495,0.495,0.496,0.496,0.496,0.496,0.496,0.497,0.497,0.497,0.497,0.497,0.497,0.497,0.497,0.498,0.498,0.498,0.499,0.499,0.499,0.499,0.5,0.5,0.5,0.5,0.501,0.501,0.501,0.501,0.501,0.501,0.501,0.501,0.501,0.501,0.501,0.501,0.501,0.501,0.501,0.502,0.502,0.502,0.503,0.503,0.503,0.504,0.504,0.505,0.505,0.506,0.506,0.506,0.507,0.507,0.507,0.508,0.508,0.508,0.508,0.508,0.509,0.509,0.509,0.509,0.509,0.509,0.509,0.509,0.509,0.509,0.509,0.509,0.509,0.508,0.508,0.508,0.507,0.507,0.507,0.506,0.506,0.505,0.504,0.503,0.502,0.501,0.5,0.499,0.498,0.498,0.497,0.497,0.497,0.498,0.499,0.501,0.503,0.504,0.506,0.508,0.51,0.511,0.512,0.514,0.514,0.515,0.515,0.515,0.515,0.516,0.516,0.516,0.516,0.516,0.515,0.515,0.515
0.471,0.471,0.472,0.472,0.472,0.473,0.473,0.473,0.473,0.473,0.473,0.473,0.473,0.473,0.473,0.474,0.474,0.474,0.474,0.474,0.475,0.475,0.475,0.475,0.475,0.474,0.474,0.473,0.472,0.47,0.468,0.464,0,0.455,0.45,0.446,0.442,0.44,0.439,0.438,0.437,0.436,0.435,0.435,0.435,0.435,0.435,0.435,0.435,0.435,0.435,0.436,0.436,0.436,0.436,0.437,0.437,0.437,0.437,0.437,0.437,0.438,0.438,0.438,0.438,0.438,0.438,0.438,0.438,0.438,0.438,0.439,0.439,0.439,0.439,0.439,0.439,0.439,0.439,0.439,0.439,0.439,0.439,0.44,0.441,0.441,0.442,0.442,0.442,0.442,0.443,0.443,0.443,0.444,0.444,0.444,0.444,0.444,0.445,0.445,0.445,0.445,0.445,0.446,0.446,0.446,0.446,0.446,0.446,0.446,0.446,0.446,0.446,0.446,0.446,0.446,0.446,0.446,0.446,0.446,0.446,0.446,0.446,0.446,0.447,0.447,0.448,0.448,0.449,0.449,0.449,0.449,0.45,0.45,0.45,0.45,0.45,0.45,0.45,0.451,0.451,0.451,0.451,0.452,0.452,0.452,0.452,0.453,0.453,0.453,0.453,0.453,0.453,0.453,0.453,0.453,0.453,0.453,0.453,0.453,0.453,0.453,0.454,0.454,0.454,0.454,0.454,0.454,0.454,0.455,0.455,0.455,0.455,0.455,0.456,0.456,0.456,0.456,0.456,0.456,0.456,0.456,0.456,0.456,0.456,0.456,0.456,0.456,0.456,0.457,0.457,0.457,0.457,0.458,0.458,0.459,0.459,0.459,0.46,0.46,0.46,0.461,0.461,0.461,0.461,0.461,0.461,0.461,0.461,0.461,0.461,0.461,0.461,0.461,0.461,0.461,0.461,0.461,0.462,0.462,0.462,0.462,0.462,0.463,0.463,0.463,0.463,0.464,0.464,0.464,0.464,0.463,0.463,0.464,0.464,0.464,0.464,0.464,0.464,0.465,0.465,0.466,0.466,0.466,0.466,0.466,0.466,0.467,0.467,0.467,0.466,0.467,0.466,0.467,0.467,0.467,0.467,0.467,0.467,0.467,0.467,0.467,0.468,0.468,0.468,0.468,0.469,0.469,0.47,0.47,0.47,0.471,0.471,0.471,0.471,0.471,0.471,0.471,0.471,0.471,0.471,0.471,0.471,0.471,0.471,0.471,0.471,0.471,0.471,0.471,0.471,0.471,0.472,0.472,0.472,0.472,0.473,0.473,0.474,0.474,0.474,0.475,0.475,0.475,0.475,0.475,0.476,0.476,0.476,0.476,0.476,0.476,0.476,0.476,0.476,0.476,0.476,0.476,0.476,0.476,0.476,0.476,0.477,0.477,0.477,0.479,0.481,0.484,0.489,0.493,0.497,0.503,0.507,0.511,0.514,0.515,0.514,0.512,0.511,0.509,0.507,0.505,0.503,0.501,0.5,0.499,0.497,0.496,0.495,0.494,0.493,0.492,0.491,0.49,0.489,0.488,0.488,0.487,0.487,0.486,0.486,0.485,0.485,0.484,0.484,0.484,0.483,0.483,0.483,0.483,0.483,0.483,0.483,0.483,0.483,0.483,0.483,0.484,0.484,0.484,0.484,0.484,0.484,0.484,0.485,0.485,0.485,0.485,0.485,0.486,0.486,0.486,0.486,0.486,0.486,0.486,0.487,0.487,0.487,0.488,0.488,0.488,0.488,0.488,0.488,0.488,0.488,0.489,0.489,0.489,0.489,0.489,0.49,0.49,0.49,0.49,0.491,0.491,0.491,0.492,0.492,0.493,0.493,0.493,0.493,0.494,0.494,0.494,0.495,0.495,0.495,0.495,0.495,0.495,0.495,0.496,0.496,0.496,0.496,0.496,0.496,0.497,0.497,0.497,0.497,0.498,0.498,0.498,0.499,0.499,0.499,0.499,0.499,0.5,0.5,0.5,0.5,0.5,0.5,0.5,0.5,0.5,0.5,0.5,0.5,0.501,0.501,0.501,0.501,0.501,0.501,0.502,0.502,0.503,0.503,0.504,0.504,0.504,0.505,0.505,0.506,0.506,0.506,0.506,0.507,0.507,0.507,0.507,0.507,0.507,0.508,0.508,0.508,0.508,0.508,0.508,0.508,0.508,0.508,0.508,0.508,0.507,0.507,0.507,0.507,0.506,0.506,0.506,0.505,0.505,0.504,0.503,0.502,0.501,0.5,0.499,0.498,0.497,0.497,0.496,0.496,0.496,0.497,0.498,0.5,0.501,0.504,0.505,0.507,0.509,0.51,0.511,0.512,0.513,0.514,0.514,0.514,0.514,0.514,0.514,0.514,0.514,0.514,0.514,0.514
0.47,0.47,0.471,0.471,0.471,0.471,0.472,0.472,0.472,0.472,0.472,0.472,0.472,0.472,0.472,0.473,0.473,0.473,0.473,0.473,0.474,0.474,0.474,0.474,0.474,0.474,0.473,0.473,0.472,0.47,0.469,0.465,0,0.456,0,0.446,0.441,0.439,0.438,0.438,0.437,0.436,0.435,0.435,0.435,0.435,0.435,0.435,0.435,0.435,0.435,0.435,0.435,0.436,0.436,0.436,0.436,0.436,0.436,0.436,0.436,0.437,0.437,0.436,0.437,0.437,0.437,0.437,0.437,0.437,0.437,0.438,0.438,0.438,0.438,0.438,0.438,0.438,0.438,0.438,0.438,0.438,0.439,0.439,0.44,0.44,0.441,0.441,0.441,0.441,0.442,0.442,0.443,0.443,0.443,0.443,0.443,0.444,0.444,0.444,0.444,0.444,0.445,0.445,0.445,0.445,0.445,0.445,0.445,0.445,0.445,0.445,0.445,0.445,0.445,0.445,0.445,0.445,0.445,0.445,0.445,0.446,0.445,0.446,0.446,0.446,0.447,0.447,0.448,0.448,0.448,0.448,0.448,0.449,0.449,0.449,0.449,0.449,0.449,0.45,0.45,0.45,0.451,0.451,0.452,0.451,0.452,0.452,0.452,0.452,0.452,0.452,0.452,0.452,0.452,0.452,0.452,0.452,0.452,0.452,0.452,0.453,0.453,0.453,0.454,0.454,0.454,0.454,0.454,0.454,0.454,0.455,0.455,0.455,0.455,0.455,0.455,0.455,0.455,0.455,0.455,0.455,0.455,0.455,0.455,0.455,0.455,0.455,0.455,0.456,0.456,0.456,0.457,0.457,0.457,0.458,0.458,0.458,0.458,0.459,0.459,0.46,0.46,0.46,0.46,0.46,0.46,0.46,0.46,0.46,0.46,0.46,0.46,0.46,0.46,0.46,0.46,0.461,0.461,0.461,0.461,0.461,0.461,0.462,0.462,0.462,0.463,0.463,0.463,0.463,0.463,0.463,0.463,0.463,0.463,0.463,0.463,0.464,0.464,0.464,0.464,0.465,0.465,0.465,0.465,0.465,0.465,0.465,0.465,0.466,0.465,0.465,0.465,0.465,0.466,0.466,0.466,0.466,0.466,0.466,0.466,0.466,0.467,0.467,0.467,0.467,0.468,0.468,0.469,0.469,0.47,0.47,0.47,0.47,0.47,0.47,0.47,0.47,0.47,0.47,0.47,0.47,0.47,0.47,0.47,0.47,0.47,0.47,0.47,0.47,0.47,0.47,0.471,0.471,0.471,0.471,0.472,0.472,0.473,0.473,0.473,0.474,0.474,0.474,0.474,0.474,0.475,0.475,0.475,0.475,0.475,0.475,0.475,0.475,0.475,0.475,0.475,0.475,0.475,0.475,0.475,0.475,0.476,0.476,0.477,0.478,0.481,0.484,0.489,0.494,0,0.504,0.509,0.512,0.514,0.515,0.514,0.513,0.511,0.509,0.506,0.505,0.503,0.501,0.499,0.498,0.497,0.496,0.495,0.494,0.493,0.491,0.491,0.49,0.489,0.488,0.488,0.487,0.486,0.486,0.485,0.484,0.484,0.484,0.483,0.483,0.483,0.482,0.482,0.482,0.482,0.481,0.482,0.482,0.482,0.482,0.482,0.483,0.483,0.483,0.483,0.483,0.483,0.484,0.484,0.484,0.484,0.484,0.484,0.484,0.484,0.484,0.485,0.485,0.485,0.486,0.486,0.486,0.486,0.486,0.487,0.487,0.487,0.487,0.487,0.487,0.488,0.488,0.488,0.488,0.488,0.488,0.488,0.489,0.489,0.49,0.49,0.49,0.491,0.491,0.491,0.492,0.491,0.492,0.492,0.493,0.493,0.493,0.493,0.493,0.494,0.494,0.494,0.494,0.494,0.495,0.495,0.495,0.495,0.495,0.495,0.495,0.496,0.496,0.496,0.497,0.497,0.497,0.497,0.498,0.498,0.498,0.498,0.499,0.499,0.499,0.499,0.499,0.499,0.499,0.499,0.499,0.499,0.499,0.499,0.499,0.499,0.499,0.5,0.5,0.5,0.501,0.501,0.501,0.502,0.502,0.503,0.504,0.504,0.504,0.504,0.505,0.505,0.505,0.506,0.506,0.506,0.506,0.506,0.506,0.506,0.506,0.507,0.507,0.507,0.507,0.507,0.507,0.507,0.507,0.507,0.507,0.506,0.506,0.506,0.506,0.506,0.505,0.505,0.504,0.504,0.503,0.502,0.501,0.501,0.499,0.498,0.497,0.496,0.495,0.495,0.495,0.495,0.496,0.497,0.499,0.501,0.503,0.505,0.506,0.508,0.509,0.511,0.511,0.512,0.513,0.513,0.513,0.513,0.513,0.513,0.513,0.513,0.513,0.513
0.47,0.47,0.47,0.47,0.47,0.471,0.471,0.471,0.471,0.471,0.471,0.471,0.471,0.471,0.471,0.471,0.471,0.472,0.472,0.472,0.473,0.473,0.473,0.473,0.473,0.473,0.473,0.472,0.471,0.47,0.469,0.466,0.461,0.457,0,0.446,0.441,0.439,0.437,0.437,0.436,0.435,0.435,0.434,0.434,0.434,0.434,0.434,0.434,0.434,0.434,0.435,0.435,0.435,0.435,0.435,0.435,0.435,0.435,0.435,0.435,0.436,0.436,0.435,0.435,0.436,0.436,0.436,0.436,0.436,0.436,0.437,0.437,0.437,0.437,0.437,0.437,0.437,0.437,0.437,0.437,0.437,0.438,0.438,0.439,0.439,0.44,0.44,0.44,0.44,0.441,0.441,0.442,0.442,0.442,0.442,0.442,0.443,0.443,0.443,0.443,0.443,0.443,0.443,0.444,0.444,0.444,0.444,0.444,0.444,0.444,0.444,0.444,0.444,0.444,0.444,0.444,0.444,0.444,0.444,0.444,0.445,0.445,0.445,0.445,0.446,0.446,0.446,0.447,0.447,0.447,0.447,0.447,0.448,0.448,0.448,0.448,0.448,0.448,0.449,0.449,0.45,0.45,0.45,0.451,0.451,0.451,0.451,0.451,0.452,0.452,0.451,0.451,0.451,0.451,0.451,0.451,0.451,0.451,0.451,0.452,0.452,0.453,0.453,0.453,0.453,0.454,0.454,0.454,0.454,0.454,0.454,0.455,0.454,0.455,0.455,0.455,0.455,0.455,0.455,0.455,0.454,0.454,0.454,0.455,0.454,0.454,0.455,0.455,0.455,0.455,0.455,0.456,0.456,0.456,0.457,0.457,0.457,0.457,0.458,0.458,0.458,0.458,0.459,0.459,0.459,0.46,0.46,0.46,0.46,0.459,0.459,0.459,0.459,0.459,0.46,0.46,0.46,0.46,0.46,0.46,0.46,0.461,0.461,0.461,0.461,0.462,0.462,0.462,0.462,0.462,0.462,0.462,0.462,0.463,0.463,0.463,0.463,0.463,0.463,0.464,0.464,0.464,0.464,0.464,0.465,0.465,0.465,0.465,0.464,0.464,0.464,0.465,0.465,0.465,0.465,0.465,0.465,0.465,0.465,0.465,0.465,0.466,0.466,0.466,0.466,0.467,0.467,0.468,0.468,0.468,0.468,0.469,0.469,0.469,0.469,0.469,0.469,0.469,0.469,0.469,0.469,0.469,0.469,0.469,0.469,0.469,0.469,0.469,0.469,0.469,0.469,0.47,0.47,0.47,0.471,0.471,0.471,0.471,0.472,0.472,0.473,0.473,0.473,0.473,0.473,0.474,0.474,0.474,0.474,0.474,0.474,0.474,0.474,0.474,0.474,0.474,0.474,0.474,0.474,0.475,0.475,0.475,0.476,0.477,0.479,0.482,0.486,0.49,0.495,0.5,0.506,0.51,0.513,0.514,0.515,0.514,0.513,0.511,0.509,0.507,0.505,0.503,0.501,0.499,0.498,0.497,0.495,0.495,0.493,0.492,0.491,0.49,0.49,0.489,0.488,0.487,0.486,0.486,0.485,0.484,0.484,0.483,0.483,0.483,0.482,0.482,0.481,0.481,0.481,0.481,0.481,0.481,0.481,0.481,0.481,0.481,0.481,0.482,0.482,0.482,0.482,0.482,0.483,0.483,0.483,0.483,0.483,0.483,0.483,0.483,0.484,0.484,0.484,0.484,0.484,0.485,0.485,0.485,0.486,0.486,0.486,0.486,0.486,0.486,0.486,0.486,0.486,0.487,0.487,0.487,0.487,0.487,0.488,0.488,0.488,0.489,0.489,0.49,0.49,0.49,0.491,0.491,0.491,0.491,0.491,0.491,0.492,0.492,0.492,0.492,0.493,0.493,0.493,0.493,0.493,0.493,0.494,0.494,0.494,0.494,0.494,0.495,0.495,0.495,0.495,0.496,0.496,0.496,0.497,0.497,0.497,0.497,0.497,0.497,0.497,0.497,0.497,0.497,0.497,0.498,0.498,0.498,0.498,0.498,0.498,0.498,0.499,0.499,0.499,0.499,0.499,0.5,0.5,0.501,0.501,0.502,0.502,0.503,0.503,0.504,0.504,0.504,0.504,0.504,0.504,0.505,0.505,0.505,0.505,0.505,0.506,0.506,0.506,0.506,0.506,0.506,0.506,0.506,0.506,0.506,0.506,0.506,0.506,0.506,0.505,0.505,0.504,0.504,0.504,0.504,0.503,0.502,0.501,0.501,0.499,0.498,0.497,0.496,0.495,0.495,0.494,0.495,0.495,0.495,0.497,0.499,0.5,0.502,0.504,0.506,0.507,0.509,0.51,0.511,0.511,0.511,0.512,0.511,0.512,0.512,0.511,0.511,0.511,0.512
0.469,0.469,0.469,0.47,0.47,0.47,0.47,0.47,0.47,0.47,0.47,0.47,0.47,0.47,0.47,0.47,0.47,0.471,0.471,0.471,0.471,0.471,0.472,0.472,0.472,0.472,0.472,0.471,0.471,0.47,0.469,0.466,0,0,0,0,0.44,0.438,0.437,0.436,0.436,0.435,0.434,0.434,0.434,0.434,0.434,0.434,0.434,0.434,0.434,0.434,0.434,0.434,0.434,0.435,0.435,0.435,0.435,0.435,0.434,0.435,0.435,0.434,0.434,0.434,0.434,0.435,0.435,0.435,0.435,0.436,0.436,0.436,0.436,0.436,0.436,0.436,0.436,0.437,0.437,0.437,0.437,0.438,0.438,0.438,0.439,0.439,0.439,0.44,0.44,0.44,0.441,0.441,0.441,0.441,0.442,0.442,0.442,0.442,0.442,0.442,0.442,0.442,0.442,0.443,0.443,0.443,0.443,0.443,0.443,0.443,0.443,0.443,0.443,0.443,0.443,0.443,0.444,0.444,0.444,0.444,0.444,0.444,0.445,0.445,0.445,0.446,0.446,0.446,0.446,0.446,0.447,0.447,0.447,0.447,0.447,0.447,0.448,0.448,0.448,0.448,0.449,0.449,0.45,0.45,0.45,0.45,0.45,0.45,0.45,0.45,0.45,0.45,0.45,0.45,0.45,0.45,0.45,0.451,0.451,0.452,0.452,0.452,0.453,0.453,0.453,0.454,0.454,0.454,0.454,0.454,0.454,0.454,0.454,0.454,0.454,0.454,0.454,0.454,0.454,0.454,0.454,0.454,0.454,0.454,0.454,0.454,0.454,0.454,0.454,0.455,0.455,0.455,0.456,0.456,0.456,0.456,0.456,0.457,0.457,0.457,0.457,0.458,0.458,0.458,0.458,0.458,0.459,0.459,0.459,0.458,0.458,0.458,0.458,0.458,0.459,0.459,0.459,0.459,0.459,0.46,0.46,0.46,0.46,0.461,0.461,0.461,0.461,0.461,0.461,0.461,0.461,0.462,0.462,0.462,0.462,0.462,0.463,0.463,0.463,0.463,0.463,0.464,0.464,0.464,0.464,0.464,0.464,0.464,0.464,0.464,0.464,0.464,0.464,0.464,0.464,0.464,0.464,0.464,0.465,0.465,0.465,0.465,0.465,0.465,0.466,0.466,0.466,0.467,0.467,0.468,0.468,0.468,0.468,0.468,0.468,0.468,0.468,0.468,0.468,0.468,0.468,0.468,0.468,0.468,0.468,0.468,0.468,0.469,0.469,0.469,0.469,0.469,0.47,0.47,0.47,0.47,0.47,0.471,0.471,0.471,0.471,0.472,0.472,0.472,0.473,0.473,0.473,0.473,0.473,0.473,0.473,0.474,0.474,0.474,0.474,0.474,0.474,0.474,0.474,0.474,0.474,0.475,0.477,0.479,0.482,0.487,0,0,0.502,0.507,0.511,0.514,0.514,0.515,0.514,0.513,0.511,0.509,0.507,0.505,0.503,0.501,0.499,0.498,0.497,0.495,0.494,0.493,0.492,0.491,0.49,0.489,0.488,0.488,0.487,0.486,0.485,0.485,0.484,0.483,0.483,0.482,0.482,0.481,0.481,0.481,0.48,0.48,0.48,0.48,0.48,0.48,0.48,0.48,0.481,0.481,0.481,0.481,0.481,0.481,0.481,0.481,0.481,0.482,0.482,0.482,0.482,0.482,0.482,0.483,0.483,0.483,0.483,0.484,0.484,0.484,0.484,0.484,0.485,0.485,0.485,0.485,0.485,0.485,0.485,0.486,0.486,0.486,0.486,0.486,0.486,0.487,0.487,0.488,0.488,0.488,0.488,0.489,0.489,0.49,0.49,0.49,0.49,0.49,0.49,0.491,0.491,0.491,0.491,0.491,0.491,0.492,0.492,0.492,0.492,0.493,0.493,0.493,0.493,0.493,0.493,0.494,0.494,0.494,0.495,0.495,0.495,0.495,0.495,0.496,0.496,0.496,0.496,0.496,0.496,0.496,0.496,0.496,0.496,0.496,0.496,0.497,0.497,0.497,0.497,0.497,0.497,0.498,0.498,0.499,0.499,0.499,0.5,0.501,0.501,0.501,0.502,0.502,0.502,0.503,0.503,0.503,0.504,0.504,0.504,0.504,0.504,0.504,0.504,0.504,0.505,0.505,0.505,0.505,0.505,0.505,0.505,0.505,0.505,0.505,0.505,0.505,0.505,0.505,0.504,0.504,0.504,0.503,0.503,0.503,0.502,0.501,0.501,0.499,0.498,0.497,0.496,0.495,0.495,0.494,0.493,0.493,0.494,0.495,0.496,0.498,0.499,0.501,0.503,0.505,0.506,0.508,0.509,0.51,0.51,0.511,0.51,0.51,0.51,0.51,0.51,0.51,0.511
0.469,0.469,0.469,0.469,0.469,0.469,0.469,0.469,0.469,0.469,0.469,0.469,0.469,0.469,0.469,0.469,0.469,0.47,0.47,0.47,0.47,0.47,0.471,0.471,0.471,0.471,0.471,0.471,0.471,0.47,0.469,0.466,0,0,0,0,0.44,0.438,0.437,0.436,0.435,0.434,0.434,0,0.433,0.433,0.433,0.433,0.433,0.434,0.433,0.433,0.434,0.434,0.434,0.434,0.434,0.434,0.434,0.434,0.434,0.434,0.434,0.434,0.434,0.434,0.434,0.434,0.434,0.434,0.435,0.435,0.435,0.435,0.435,0.435,0.435,0.435,0.436,0.436,0.436,0.436,0.436,0.437,0.437,0.437,0.438,0.438,0.439,0.439,0.439,0.439,0.44,0.44,0.44,0.44,0.441,0.441,0.441,0.441,0.441,0.441,0.441,0.441,0.441,0.441,0.441,0.442,0.442,0.442,0.442,0.442,0.442,0.442,0.442,0.443,0.443,0.443,0.443,0.443,0.443,0.443,0.443,0.444,0.444,0.444,0.445,0.445,0.446,0.446,0.446,0.446,0.446,0.446,0.446,0.446,0.446,0.447,0.447,0.447,0.447,0.447,0.448,0.448,0.448,0.449,0.449,0.449,0.449,0.449,0.449,0.449,0.449,0.449,0.449,0.449,0.449,0.449,0.449,0.45,0.45,0.451,0.451,0.452,0.452,0.453,0.453,0.453,0.454,0.454,0.454,0.454,0.454,0.454,0.454,0.454,0.453,0.453,0.453,0.453,0.453,0.453,0.453,0.453,0.453,0.453,0.453,0.453,0.453,0.454,0.454,0.454,0.454,0.455,0.455,0.455,0.455,0.455,0.455,0.456,0.456,0.456,0.457,0.457,0.457,0.457,0.458,0.458,0.458,0.458,0.458,0.458,0.458,0.458,0.458,0.458,0.458,0.458,0.458,0.458,0.458,0.459,0.459,0.459,0.46,0.46,0.46,0.46,0.46,0.46,0.46,0.46,0.461,0.461,0.461,0.461,0.461,0.462,0.462,0.462,0.462,0.462,0.463,0.463,0.463,0.463,0.463,0.463,0.463,0.463,0.463,0.463,0.463,0.463,0.463,0.463,0.464,0.464,0.464,0.464,0.464,0.464,0.464,0.464,0.465,0.465,0.465,0.465,0.465,0.466,0.466,0.466,0.466,0.466,0.467,0.467,0.467,0.467,0.467,0.467,0.467,0.467,0.467,0.467,0.467,0.467,0.467,0.468,0.468,0.468,0.468,0.468,0.468,0.469,0.469,0.469,0.469,0.469,0.469,0.47,0.47,0.47,0.47,0.471,0.471,0.471,0.471,0.471,0.472,0.472,0.472,0.472,0.473,0.473,0.473,0.473,0.473,0.473,0.473,0.473,0.473,0.473,0.474,0.474,0.476,0.478,0.482,0.487,0,0.498,0.503,0.509,0.513,0.514,0.515,0.515,0.514,0.513,0.511,0.51,0.508,0.506,0.504,0.501,0.499,0.498,0.497,0.495,0.494,0.493,0.492,0.491,0.49,0.489,0.488,0.487,0.486,0.486,0.485,0.484,0.484,0.483,0.482,0.482,0.481,0.481,0.48,0.48,0.48,0.48,0.48,0.48,0.48,0.48,0.48,0.48,0.48,0.48,0.48,0.48,0.48,0.48,0.48,0.48,0.48,0.481,0.481,0.481,0.481,0.481,0.481,0.481,0.482,0.482,0.483,0.483,0.483,0.483,0.483,0.484,0.484,0.484,0.484,0.484,0.484,0.484,0.484,0.484,0.485,0.485,0.485,0.485,0.485,0.486,0.486,0.486,0.487,0.487,0.487,0.488,0.488,0.488,0.488,0.489,0.489,0.489,0.49,0.49,0.49,0.49,0.49,0.49,0.491,0.491,0.491,0.491,0.491,0.491,0.492,0.492,0.492,0.492,0.493,0.493,0.493,0.493,0.493,0.494,0.494,0.494,0.494,0.495,0.495,0.495,0.495,0.495,0.495,0.495,0.495,0.495,0.495,0.495,0.495,0.495,0.495,0.495,0.496,0.496,0.496,0.497,0.497,0.497,0.498,0.499,0.499,0.5,0.5,0.501,0.501,0.501,0.501,0.502,0.502,0.502,0.502,0.502,0.503,0.503,0.503,0.503,0.503,0.504,0.504,0.504,0.504,0.504,0.504,0.504,0.504,0.504,0.504,0.504,0.504,0.504,0.504,0.504,0.504,0.503,0.503,0.503,0.502,0.502,0.501,0.501,0.5,0.499,0.498,0.497,0.496,0.495,0.494,0.493,0.493,0.492,0.493,0.493,0.495,0.496,0.497,0.499,0.501,0.503,0.504,0.506,0.507,0.508,0.509,0.509,0.509,0.509,0.509,0.509,0.509,0.509,0.509
0.468,0.468,0.469,0.469,0.469,0.469,0.469,0.468,0.468,0.468,0.468,0.468,0.468,0.468,0.468,0.468,0.468,0.469,0.469,0.469,0.469,0.469,0.47,0.47,0.47,0.47,0.471,0.47,0.47,0.47,0.469,0.467,0,0,0,0,0.44,0.437,0.436,0.436,0.435,0.434,0.434,0.433,0.433,0.433,0.432,0.432,0.433,0.433,0.433,0.433,0.433,0.433,0.433,0.433,0.433,0.433,0.433,0.433,0.433,0.433,0.433,0.433,0.433,0.433,0.434,0.434,0.434,0.434,0.434,0.434,0.434,0.434,0.434,0.434,0.434,0.435,0.435,0.435,0.435,0.435,0.435,0.436,0.436,0.436,0.437,0.437,0.437,0.438,0.438,0.439,0.439,0.439,0.439,0.44,0.44,0.44,0.44,0.44,0.44,0.44,0.44,0.44,0.44,0.44,0,0.44,0.441,0.441,0.441,0.441,0.441,0.441,0.441,0.442,0.442,0.442,0.442,0.442,0.442,0.442,0.443,0.443,0.444,0.444,0.444,0.445,0.445,0.445,0.445,0.445,0.445,0.446,0.446,0.446,0.446,0.446,0.446,0.446,0.446,0.447,0.447,0.447,0.447,0.448,0.448,0.448,0.448,0.448,0.448,0.448,0.448,0.448,0.448,0.448,0.448,0.448,0.448,0.449,0.449,0.45,0.451,0.451,0.452,0.452,0.452,0.453,0.453,0.453,0.453,0.453,0.453,0.453,0.453,0.453,0.453,0.453,0.452,0.452,0.452,0.452,0.452,0.452,0.452,0.452,0.452,0.453,0.453,0.453,0.453,0.454,0.454,0.454,0.454,0.454,0.454,0.454,0.454,0.455,0.455,0.455,0.455,0.456,0.456,0.456,0.457,0.457,0.457,0.457,0.457,0.457,0.457,0.457,0.457,0.457,0.457,0.457,0.457,0.457,0.458,0.458,0.458,0.458,0.458,0.459,0.459,0.459,0.459,0.459,0.46,0.46,0.46,0.46,0.46,0.46,0.46,0.461,0.461,0.461,0.461,0.462,0.462,0.462,0.462,0.462,0.462,0.462,0.462,0.462,0.462,0.463,0.463,0.463,0.463,0.463,0.463,0.463,0.463,0.463,0.463,0.463,0.464,0.464,0.464,0.464,0.464,0.464,0.465,0.465,0.465,0.465,0.465,0.465,0.465,0.466,0.465,0.466,0.466,0.466,0.466,0.466,0.466,0.466,0.466,0.466,0.466,0.467,0.467,0.467,0.467,0.467,0.468,0.468,0.468,0.468,0.468,0.468,0.468,0.469,0.469,0.469,0.469,0.469,0.47,0.47,0.47,0.47,0.47,0.471,0.471,0.471,0.471,0.471,0.472,0.472,0.472,0.472,0.472,0.472,0.472,0.472,0.473,0.473,0.475,0.478,0.481,0.487,0,0.499,0.504,0.51,0.514,0.515,0.515,0.515,0.514,0.513,0.512,0.51,0.508,0.506,0.504,0.502,0.5,0.498,0.497,0.495,0.494,0.493,0.491,0.49,0.49,0.489,0.488,0.487,0.486,0.485,0.485,0.484,0.483,0.483,0.482,0.481,0.481,0.48,0.48,0.48,0.48,0.479,0.479,0.479,0.479,0.479,0.479,0.479,0.479,0.479,0.479,0.479,0.479,0.479,0.479,0.479,0.48,0.48,0.48,0.48,0.48,0.48,0.48,0.48,0.481,0.481,0.481,0.482,0.482,0.482,0.483,0.483,0.483,0.483,0.483,0.483,0.483,0.483,0.483,0.484,0.484,0.484,0.484,0.484,0.484,0.484,0.485,0.485,0.486,0.486,0.486,0.487,0.487,0.487,0.487,0.488,0.488,0.488,0.488,0.488,0.489,0.489,0.489,0.489,0.49,0.49,0.49,0.49,0.49,0.49,0.491,0.491,0.491,0.491,0.491,0.492,0.492,0.492,0.493,0.493,0.493,0.493,0.493,0.493,0.493,0.493,0.493,0.493,0.493,0.493,0.493,0.494,0.494,0.494,0.494,0.494,0.494,0.494,0.495,0.495,0.495,0.495,0.496,0.497,0.497,0.498,0.498,0.499,0.499,0.5,0.5,0.5,0.501,0.501,0.501,0.501,0.501,0.502,0.502,0.502,0.502,0.502,0.502,0.503,0.503,0.503,0.503,0.503,0.503,0.503,0.503,0.504,0.503,0.503,0.503,0.503,0.503,0.503,0.503,0.502,0.502,0.502,0.502,0.501,0.501,0.5,0.5,0.499,0.498,0.497,0.495,0.495,0.494,0.493,0.492,0.491,0.491,0.492,0.493,0.494,0.495,0.496,0.498,0.5,0.502,0.504,0.505,0.506,0.507,0.507,0.508,0.507,0.507,0.507,0.507,0.507,0.508
0.468,0.468,0.468,0.468,0.468,0.468,0.468,0.468,0.467,0.467,0.467,0.467,0.467,0.467,0.467,0.467,0.467,0.468,0.468,0.468,0.468,0.469,0.469,0.469,0.469,0.47,0.47,0.47,0.47,0.469,0.469,0.466,0.462,0,0,0,0,0.437,0.436,0.435,0.434,0.434,0.433,0.432,0.432,0.432,0.432,0.432,0.432,0.432,0.432,0.432,0.432,0.432,0.432,0.432,0.432,0.432,0.433,0.433,0.432,0.433,0.432,0.432,0.433,0.433,0.433,0.433,0.433,0.433,0.433,0.433,0.433,0.434,0.434,0.434,0.434,0.434,0.434,0.434,0.434,0.434,0.435,0.435,0.436,0.436,0.436,0.436,0.436,0.437,0.437,0.438,0.438,0.438,0.438,0.439,0.439,0.439,0.439,0.439,0.439,0.439,0.439,0.439,0.439,0.439,0.439,0.439,0.439,0.439,0.439,0.44,0.44,0.44,0.44,0.441,0.441,0.441,0.441,0.441,0.441,0.442,0.442,0.443,0.443,0.443,0.444,0.444,0.444,0.444,0.445,0.445,0.445,0.445,0.445,0.445,0.445,0.445,0.445,0.446,0.446,0.446,0.446,0.446,0.446,0.446,0.446,0.446,0.447,0.447,0.447,0.447,0.447,0.447,0.447,0.447,0.447,0.447,0.447,0.448,0.448,0.449,0.45,0.451,0.451,0.452,0.452,0.452,0.453,0.453,0.453,0.453,0.453,0.452,0.452,0.452,0.452,0.452,0.452,0.451,0.451,0.451,0.451,0.451,0.451,0.451,0.452,0.452,0.452,0.452,0.453,0.453,0.453,0.453,0.453,0.453,0.453,0.453,0.454,0.454,0.454,0.454,0.454,0.455,0.455,0.455,0.456,0.456,0.456,0.456,0.456,0.456,0.456,0.456,0.456,0.456,0.456,0.456,0.456,0.457,0.457,0.457,0.457,0.457,0.457,0.457,0.458,0.458,0.458,0.458,0.458,0.458,0.459,0.459,0.459,0.459,0.46,0.46,0.46,0.46,0.46,0.461,0.461,0.461,0.461,0.461,0.461,0.461,0.462,0.462,0.462,0.462,0.462,0.462,0.462,0.462,0.462,0.462,0.462,0.462,0.463,0.463,0.463,0.463,0.463,0.463,0.463,0.464,0.464,0.464,0.464,0.464,0.464,0.464,0.464,0.465,0.465,0.465,0.465,0.465,0.465,0.465,0.465,0.465,0.465,0.465,0.465,0.466,0.466,0.466,0.466,0.466,0.467,0.467,0.467,0.467,0.467,0.467,0.467,0.468,0.468,0.468,0.468,0.468,0.469,0.469,0.469,0.469,0.469,0.47,0.47,0.47,0.47,0.471,0.471,0.471,0.471,0.471,0.471,0.471,0.471,0.471,0.472,0.472,0.474,0.477,0.481,0.487,0.493,0.499,0.505,0.511,0.514,0.514,0.515,0.515,0.514,0.513,0.511,0.51,0.508,0.506,0.505,0.503,0.501,0.499,0.497,0.495,0.494,0.493,0.491,0.49,0.489,0.488,0.488,0.487,0.486,0.485,0.484,0.484,0.483,0.482,0.481,0.481,0.48,0.48,0.48,0.479,0.479,0.479,0.478,0.478,0.478,0.478,0.478,0.478,0.478,0.478,0.478,0.478,0.478,0.478,0.478,0.478,0.478,0.478,0.478,0.479,0.479,0.479,0.479,0.479,0.48,0.48,0.48,0.481,0.481,0.481,0.481,0.482,0.482,0.482,0.482,0.482,0.482,0.482,0.483,0.483,0.483,0.483,0.483,0.483,0.483,0.484,0.484,0.484,0.484,0.485,0.485,0.486,0.486,0.486,0.486,0.487,0.487,0.487,0.487,0.488,0.488,0.488,0.488,0.488,0.488,0.489,0.489,0.489,0.49,0.49,0.49,0.49,0.49,0.49,0.491,0.491,0.491,0.491,0.491,0.491,0.492,0.492,0.492,0.492,0.492,0.492,0.492,0.492,0.492,0.492,0.492,0.492,0.493,0.493,0.493,0.493,0.493,0.493,0.493,0.494,0.494,0.495,0.495,0.495,0.496,0.497,0.497,0.498,0.499,0.499,0.499,0.499,0.5,0.5,0.5,0.501,0.501,0.501,0.501,0.501,0.501,0.501,0.501,0.502,0.502,0.502,0.502,0.502,0.502,0.502,0.502,0.502,0.502,0.502,0.502,0.502,0.502,0.502,0.502,0.501,0.501,0.501,0.501,0.501,0.5,0.5,0.499,0.499,0.497,0.496,0.495,0.494,0.493,0.493,0.491,0.491,0.491,0.491,0.491,0.492,0.493,0.494,0.496,0.497,0.499,0.501,0.503,0.504,0.505,0.506,0.506,0.506,0.506,0.506,0.506,0.506,0.506
0.467,0.467,0.468,0.468,0.467,0.467,0.467,0.467,0.467,0.466,0.466,0.466,0.466,0.466,0.466,0.466,0.466,0.466,0.467,0.467,0.468,0.468,0.468,0.468,0.468,0.469,0.469,0.469,0.469,0.468,0.468,0.465,0.461,0,0,0.445,0.439,0.437,0.436,0.435,0.434,0.433,0.433,0.432,0.431,0.431,0.431,0.431,0.431,0.431,0.431,0.431,0.431,0.431,0.431,0.432,0.432,0.432,0.432,0.432,0.432,0.432,0.432,0.432,0.432,0.432,0.432,0.432,0.432,0.432,0.433,0.433,0.433,0.433,0.433,0.433,0.433,0.433,0.434,0.434,0.434,0.434,0.434,0.434,0.435,0.435,0.435,0.435,0.435,0.436,0.436,0.436,0.437,0.437,0.437,0.437,0.438,0.438,0.438,0.438,0.438,0.438,0.438,0.438,0.438,0.438,0.438,0.438,0.439,0.438,0.439,0.439,0.439,0.439,0.439,0.439,0.44,0.44,0.44,0.44,0.441,0.441,0.442,0.442,0.442,0.443,0.443,0.444,0.444,0.444,0.444,0.444,0.444,0.444,0.444,0.444,0.444,0.444,0.445,0.445,0.445,0.445,0.446,0.446,0.446,0.446,0.446,0.446,0.446,0.446,0.446,0.446,0.446,0.446,0.446,0.446,0.446,0.446,0.446,0.447,0.447,0.448,0.449,0.449,0.45,0.451,0.451,0.452,0.452,0.452,0.452,0.452,0.452,0.451,0.451,0.451,0.451,0.451,0.451,0.45,0.45,0.45,0.45,0.45,0.45,0.451,0.451,0.451,0.451,0.452,0.452,0.452,0.452,0.452,0.453,0.453,0.453,0.453,0.453,0.453,0.453,0.453,0.454,0.454,0.454,0.454,0.455,0.455,0.455,0.455,0.455,0.455,0.455,0.455,0.455,0.455,0.455,0.455,0.455,0.455,0.456,0.456,0.456,0.456,0.456,0.456,0.456,0.457,0.457,0.457,0.457,0.457,0.458,0.458,0.458,0.458,0.458,0.459,0.459,0.459,0.46,0.46,0.46,0.46,0.46,0.46,0.46,0.461,0.461,0.461,0.461,0.461,0.461,0.461,0.461,0.461,0.461,0.461,0.461,0.462,0.462,0.462,0.462,0.462,0.462,0.462,0.463,0.463,0.463,0.463,0.463,0.463,0.463,0.463,0.463,0.463,0.464,0.464,0.464,0.464,0.464,0.464,0.464,0.464,0.464,0.465,0.465,0.465,0.465,0.465,0.465,0.465,0.466,0.466,0.466,0.466,0.466,0.466,0.466,0.466,0.467,0.467,0.467,0.467,0.467,0.468,0.468,0.468,0.468,0.469,0.469,0.469,0.469,0.47,0.47,0.47,0.47,0.47,0.47,0.47,0.47,0.47,0.471,0.471,0.474,0.477,0.482,0,0.494,0.5,0.506,0.512,0.514,0.514,0.514,0.514,0.514,0.513,0.511,0.51,0.509,0.507,0.505,0.503,0.501,0.499,0.497,0.496,0.494,0.493,0.491,0.49,0.489,0.488,0.487,0.486,0.486,0.485,0.484,0.483,0.483,0.482,0.481,0.48,0.48,0.48,0.479,0.479,0.478,0.478,0.478,0.478,0.478,0.478,0.478,0.478,0.477,0.477,0.477,0.477,0.477,0.477,0.477,0.477,0.477,0.477,0.477,0.478,0.478,0.478,0.478,0.478,0.479,0.479,0.479,0.48,0.48,0.48,0.48,0.481,0.481,0.481,0.481,0.481,0.481,0.481,0.481,0.481,0.481,0.482,0.482,0.482,0.482,0.483,0.483,0.483,0.483,0.484,0.484,0.484,0.485,0.485,0.485,0.486,0.486,0.486,0.486,0.486,0.487,0.487,0.487,0.488,0.488,0.488,0.488,0.488,0.488,0.488,0.489,0.489,0.489,0.49,0.49,0.49,0.49,0.49,0.491,0.491,0.491,0.491,0.491,0.491,0.491,0.491,0.491,0.491,0.491,0.491,0.491,0.491,0.491,0.491,0.491,0.491,0.492,0.492,0.492,0.493,0.493,0.493,0.494,0.495,0.495,0.496,0.497,0.497,0.497,0.498,0.499,0.499,0.499,0.499,0.499,0.5,0.5,0.5,0.5,0.501,0.501,0.501,0.501,0.501,0.501,0.501,0.501,0.501,0.501,0.501,0.501,0.501,0.501,0.501,0.501,0.501,0.501,0.501,0.501,0.501,0.5,0.5,0.5,0.5,0.499,0.499,0.499,0.498,0.497,0.496,0.495,0.494,0.493,0.492,0.491,0.491,0.49,0.49,0.491,0.491,0.491,0.493,0.494,0.495,0.497,0.499,0.501,0.502,0.503,0.504,0.504,0.505,0.505,0.505,0.505,0.505,0.505
0.467,0.467,0.467,0.467,0.467,0.466,0.466,0.466,0.466,0.466,0.466,0.465,0.465,0.465,0.466,0.466,0.466,0.466,0.466,0.466,0.466,0.467,0.467,0.467,0.467,0.468,0.468,0.468,0.468,0.467,0.467,0.464,0,0.455,0,0.445,0.44,0.437,0.436,0.435,0.434,0.433,0.432,0.431,0.431,0.43,0.43,0.43,0.43,0.43,0.43,0.431,0.431,0.431,0.431,0.431,0.431,0.431,0.431,0.431,0.431,0.431,0.431,0.431,0.432,0.432,0.432,0.432,0.432,0.432,0.432,0.432,0.432,0.432,0.432,0.432,0.433,0.433,0.433,0.433,0.433,0.434,0.434,0.434,0.434,0.434,0.434,0.434,0.434,0.435,0.435,0.435,0.436,0.436,0.436,0.436,0.436,0.437,0.437,0.437,0.437,0.437,0.437,0.437,0.437,0.437,0.437,0.437,0.437,0.437,0.437,0.438,0.438,0.438,0.438,0.439,0.439,0.439,0.439,0.44,0.44,0.44,0.441,0.441,0.442,0.442,0.442,0.443,0.443,0.443,0.443,0.443,0.443,0.443,0.443,0.443,0.443,0.444,0.444,0.444,0.444,0.444,0.445,0.445,0.445,0.445,0.445,0.445,0.445,0.445,0.445,0.445,0.445,0.445,0.445,0.445,0.445,0.446,0.446,0.446,0.446,0.447,0.448,0.448,0.449,0.45,0.45,0.45,0.451,0.451,0.451,0.451,0.45,0.45,0.45,0.45,0.45,0.45,0.449,0.449,0.449,0.449,0.449,0.449,0.449,0.45,0.45,0.45,0.451,0.451,0.452,0.452,0.452,0.452,0.452,0.452,0.452,0.452,0.452,0.452,0.452,0.453,0.453,0.453,0.453,0.453,0.454,0.454,0.454,0.454,0.454,0.454,0.454,0.454,0.454,0.454,0.454,0.455,0.455,0.454,0.454,0.455,0.455,0.455,0.455,0.455,0.455,0.456,0.456,0.456,0.456,0.457,0.457,0.457,0.457,0.458,0.458,0.458,0.458,0.458,0.458,0.458,0.459,0.459,0.459,0.459,0.46,0.46,0.46,0.46,0.46,0.46,0.46,0.46,0.46,0.46,0.46,0.46,0.46,0.46,0.461,0.461,0.461,0.461,0.461,0.461,0.461,0.462,0.462,0.462,0.462,0.462,0.462,0.462,0.462,0.462,0.463,0.463,0.463,0.463,0.463,0.463,0.463,0.463,0.464,0.464,0.464,0.464,0.464,0.465,0.465,0.465,0.465,0.465,0.465,0.465,0.465,0.465,0.465,0.465,0.465,0.466,0.466,0.466,0.466,0.466,0.467,0.467,0.467,0.468,0.468,0.469,0.469,0.469,0.469,0.469,0.469,0.469,0.469,0.469,0.469,0.469,0.47,0.47,0.474,0.478,0.482,0,0.494,0,0.507,0.512,0.513,0.514,0.514,0.514,0.514,0.513,0.511,0.511,0.509,0.508,0.506,0.504,0.502,0.5,0.498,0.496,0.495,0.493,0.491,0.49,0.489,0.488,0.487,0.486,0.485,0.484,0.484,0.483,0.482,0.481,0.481,0.48,0.48,0.479,0.479,0.478,0.478,0.478,0.478,0.477,0.477,0.477,0.477,0.477,0.477,0.477,0.477,0.477,0.476,0.477,0.476,0.476,0.476,0.477,0.477,0.477,0.477,0.477,0.477,0.477,0.478,0.478,0.478,0.478,0.479,0.479,0.479,0.48,0.48,0.48,0.48,0.48,0.48,0.48,0.48,0.48,0.481,0.481,0.481,0.481,0.481,0.481,0.482,0.482,0.483,0.483,0.483,0.483,0.484,0.484,0.484,0.484,0.485,0.485,0.485,0.486,0.486,0.486,0.486,0.486,0.487,0.487,0.487,0.487,0.487,0.488,0.488,0.488,0.488,0.488,0.489,0.489,0.489,0.489,0.49,0.49,0.49,0.49,0.49,0.49,0.49,0.49,0.49,0.49,0.49,0.49,0.49,0.49,0.49,0.49,0.49,0.49,0.491,0.491,0.491,0.491,0.492,0.492,0.493,0.493,0.494,0.495,0.495,0.496,0.497,0.497,0.497,0.498,0.498,0.499,0.499,0.499,0.499,0.499,0.499,0.5,0.5,0.5,0.5,0.5,0.5,0.5,0.5,0.5,0.5,0.501,0.501,0.501,0.501,0.501,0.501,0.501,0.5,0.5,0.5,0.5,0.499,0.499,0.499,0.499,0.499,0.498,0.498,0.497,0.496,0.495,0.494,0.493,0.493,0.492,0.491,0.49,0.49,0.49,0.49,0.49,0.49,0.491,0.491,0.493,0.495,0.497,0.498,0.5,0.501,0.502,0.503,0.503,0.504,0.504,0.504,0.504,0.504
0.466,0.466,0.466,0.466,0.466,0.466,0.466,0.465,0.465,0.465,0.465,0.465,0.465,0.465,0.465,0.465,0.465,0.465,0.465,0.465,0.466,0.466,0.466,0.466,0.466,0.466,0.466,0.467,0.466,0.466,0.465,0.463,0,0.455,0.45,0.446,0.441,0.439,0.436,0.435,0.434,0.433,0.431,0.431,0.43,0.43,0.43,0.429,0.429,0.429,0.429,0.429,0.429,0.429,0.429,0.43,0.43,0.43,0.43,0.43,0.431,0.43,0.431,0.431,0.431,0.431,0.431,0.431,0.431,0.431,0.431,0.431,0.431,0.431,0.432,0.432,0.432,0.432,0.432,0.432,0.433,0.433,0.433,0.433,0.433,0.433,0.434,0.434,0.434,0.434,0.434,0.434,0.434,0.435,0.435,0.435,0.435,0.435,0.436,0.436,0.436,0.436,0.436,0.436,0.436,0.436,0.436,0.436,0.436,0.436,0.436,0.437,0.437,0.437,0.437,0.437,0.438,0.438,0.438,0.439,0.439,0.44,0.44,0.441,0.441,0.442,0.442,0.442,0.442,0.442,0.442,0.442,0.442,0.443,0.443,0.443,0.443,0.443,0.443,0.443,0.443,0.444,0.444,0.444,0.444,0.444,0.444,0.443,0.443,0.444,0.444,0.444,0.444,0.444,0.444,0.444,0.444,0.445,0.445,0.445,0.446,0.446,0.447,0.447,0.448,0.448,0.449,0.449,0.45,0.449,0.449,0.449,0.449,0.449,0.449,0.449,0.449,0.448,0.448,0.448,0.448,0.448,0.448,0.448,0.449,0.449,0.449,0.45,0.45,0.451,0.451,0.451,0.452,0.452,0.452,0.452,0.452,0.452,0.452,0.452,0.452,0.452,0.452,0.452,0.452,0.452,0.453,0.453,0.453,0.453,0.453,0.453,0.453,0.453,0.454,0.454,0.454,0.454,0.454,0.453,0.453,0.454,0.454,0.454,0.454,0.454,0.455,0.455,0.455,0.455,0.456,0.456,0.456,0.456,0.456,0.457,0.457,0.457,0.457,0.457,0.458,0.458,0.458,0.458,0.458,0.458,0.458,0.458,0.459,0.459,0.459,0.459,0.459,0.459,0.459,0.459,0.459,0.459,0.46,0.46,0.46,0.46,0.46,0.46,0.46,0.46,0.461,0.461,0.461,0.461,0.461,0.461,0.461,0.461,0.461,0.461,0.461,0.462,0.462,0.462,0.462,0.462,0.462,0.463,0.463,0.463,0.463,0.464,0.464,0.464,0.464,0.464,0.464,0.464,0.464,0.464,0.464,0.465,0.465,0.465,0.465,0.465,0.465,0.465,0.465,0.466,0.466,0.466,0.466,0.467,0.467,0.468,0.468,0.468,0.468,0.468,0.469,0.469,0.468,0.468,0.468,0.469,0.469,0.47,0.474,0.478,0.482,0,0,0,0,0.511,0.512,0.513,0.513,0.513,0.513,0.512,0.511,0.51,0.509,0.508,0.506,0.504,0.503,0.501,0.499,0.497,0.495,0.493,0.492,0.491,0.489,0.488,0.487,0.486,0.485,0.484,0.483,0.483,0.481,0.481,0.48,0.48,0.479,0.479,0.478,0.478,0.478,0.477,0.477,0.477,0.477,0.477,0.477,0.476,0.476,0.476,0.476,0.475,0.475,0.475,0.475,0.475,0.475,0.475,0.475,0.475,0.476,0.476,0.476,0.476,0.477,0.477,0.477,0.477,0.478,0.478,0.478,0.478,0.478,0.479,0.479,0.479,0.479,0.479,0.479,0.48,0.48,0.48,0.48,0.48,0.48,0.481,0.481,0.481,0.481,0.482,0.482,0.482,0.483,0.483,0.483,0.483,0.484,0.484,0.484,0.484,0.484,0.485,0.485,0.485,0.486,0.486,0.486,0.486,0.486,0.486,0.487,0.487,0.487,0.488,0.488,0.488,0.488,0.488,0.488,0.489,0.489,0.489,0.489,0.489,0.489,0.489,0.489,0.489,0.489,0.489,0.489,0.489,0.489,0.489,0.489,0.489,0.49,0.49,0.49,0.49,0.491,0.491,0.492,0.492,0.493,0.493,0.494,0.495,0.495,0.496,0.496,0.497,0.497,0.497,0.498,0.498,0.498,0.499,0.499,0.499,0.499,0.499,0.499,0.499,0.499,0.499,0.499,0.499,0.499,0.499,0.5,0.5,0.5,0.5,0.5,0.5,0.499,0.499,0.499,0.499,0.499,0.499,0.498,0.498,0.498,0.497,0.497,0.497,0.496,0.495,0.494,0.493,0.492,0.491,0.491,0.49,0.49,0.489,0.489,0.489,0.489,0.489,0.49,0.491,0.492,0.494,0.496,0.497,0.499,0.5,0.501,0.501,0.502,0.502,0.502,0.502,0.503
0.465,0.465,0.465,0.465,0.465,0.465,0.465,0.465,0.465,0.465,0.465,0.464,0.464,0.464,0.464,0.464,0.465,0.465,0.465,0.465,0.465,0.465,0.465,0.465,0.465,0.465,0.466,0.466,0.466,0.465,0.464,0.462,0,0.455,0,0.447,0.443,0.439,0.437,0.435,0.433,0.432,0.431,0.431,0.429,0.429,0.428,0.428,0.428,0.428,0.428,0.428,0.428,0.428,0.428,0.428,0.429,0.429,0.429,0.429,0.429,0.429,0.43,0.43,0.43,0.43,0.43,0.43,0.43,0.43,0.431,0.431,0.431,0.431,0.431,0.431,0.431,0.431,0.431,0.432,0.432,0.432,0.432,0.432,0.432,0.433,0.433,0.433,0.433,0.433,0.433,0.434,0.434,0.434,0.434,0.434,0.434,0.434,0.435,0.435,0.435,0.435,0.435,0.435,0.435,0.435,0.435,0.435,0.435,0.435,0.435,0.436,0.436,0.436,0.436,0.436,0.437,0.437,0.438,0.438,0.439,0.439,0.44,0.44,0.44,0.441,0.441,0.441,0.442,0.441,0.441,0.442,0.442,0.442,0.442,0.442,0.442,0.442,0.443,0.443,0.443,0.443,0.443,0.443,0.443,0.443,0.443,0.442,0.442,0.443,0.443,0.443,0.443,0.443,0.443,0.443,0.444,0.444,0.444,0.444,0.445,0.445,0.446,0.446,0.447,0.447,0.447,0.448,0.448,0.448,0.448,0.448,0.448,0.448,0.448,0.447,0.447,0.447,0.447,0.447,0.447,0.447,0.447,0.447,0.448,0.448,0.448,0.449,0.45,0.45,0.451,0.451,0.451,0.451,0.451,0.451,0.451,0.451,0.451,0.451,0.451,0.451,0.451,0.452,0.452,0.452,0.452,0.452,0.452,0.452,0.452,0.452,0.452,0.453,0.453,0.453,0.453,0.453,0.453,0.453,0.453,0.453,0.453,0.453,0.453,0.453,0.454,0.454,0.454,0.454,0.455,0.455,0.455,0.455,0.455,0.456,0.456,0.456,0.456,0.456,0.456,0.457,0.457,0.457,0.457,0.457,0.457,0.458,0.458,0.458,0.458,0.458,0.458,0.458,0.458,0.458,0.458,0.458,0.458,0.458,0.458,0.458,0.458,0.459,0.459,0.46,0.46,0.46,0.46,0.46,0.46,0.46,0.46,0.46,0.46,0.46,0.46,0.461,0.461,0.461,0.461,0.462,0.462,0.462,0.462,0.462,0.463,0.463,0.463,0.463,0.463,0.463,0.464,0.464,0.464,0.464,0.463,0.464,0.464,0.464,0.464,0.464,0.464,0.464,0.465,0.465,0.465,0.465,0.466,0.466,0.466,0.466,0.467,0.467,0.467,0.468,0.468,0.468,0.468,0.468,0.468,0.467,0.469,0.469,0.474,0.478,0.483,0,0.495,0,0,0.511,0.511,0.512,0.511,0.512,0.512,0.511,0.511,0.51,0.509,0.508,0.506,0.505,0.504,0.502,0.5,0.498,0.496,0.494,0.492,0.491,0.489,0.488,0.486,0.485,0.484,0.484,0.483,0.482,0.481,0.48,0.48,0.479,0.479,0.478,0.478,0.477,0.477,0.477,0.477,0.477,0.476,0.476,0.476,0.475,0.475,0.475,0.475,0.475,0.474,0.474,0.474,0.474,0.474,0.474,0.474,0.475,0.475,0.475,0.475,0.475,0.476,0.476,0.476,0.477,0.477,0.477,0.477,0.477,0.478,0.478,0.478,0.478,0.478,0.478,0.478,0.478,0.478,0.479,0.479,0.479,0.479,0.48,0.48,0.48,0.48,0.481,0.481,0.481,0.481,0.482,0.482,0.483,0.483,0.483,0.483,0.483,0.483,0.484,0.484,0.484,0.484,0.484,0.485,0.485,0.485,0.485,0.486,0.486,0.486,0.486,0.487,0.487,0.487,0.488,0.488,0.488,0.488,0.488,0.488,0.488,0.488,0.488,0.488,0.488,0.488,0.488,0.488,0.488,0.488,0.488,0.488,0.488,0.488,0.489,0.489,0.489,0.49,0.49,0.491,0.491,0.492,0.492,0.493,0.493,0.494,0.495,0.495,0.495,0.496,0.496,0.496,0.497,0.497,0.497,0.497,0.498,0.498,0.498,0.498,0.499,0.499,0.499,0.499,0.499,0.499,0.499,0.499,0.499,0.499,0.499,0.499,0.499,0.499,0.499,0.498,0.498,0.498,0.498,0.497,0.497,0.497,0.497,0.496,0.496,0.495,0.494,0.494,0.493,0.492,0.491,0.491,0.49,0.49,0.489,0.488,0.488,0.488,0.488,0.488,0.489,0.49,0.491,0.493,0.495,0.497,0.498,0.499,0.5,0.501,0.501,0.501,0.501,0.501
0.464,0.464,0.465,0.465,0.464,0.464,0.464,0.464,0.464,0.464,0.464,0.464,0.464,0.464,0.464,0.464,0.464,0.464,0.464,0.464,0.464,0.464,0.464,0.465,0.465,0.465,0.465,0.465,0.465,0.464,0.463,0.461,0,0,0,0.448,0.444,0.441,0.438,0.436,0.433,0.432,0.431,0.43,0.428,0.428,0.428,0.427,0.427,0.427,0.427,0.427,0.427,0.427,0.427,0.427,0.428,0.428,0.428,0.428,0.429,0.429,0.429,0.429,0.43,0.43,0.43,0.429,0.43,0.43,0.43,0.43,0.43,0.43,0.43,0.431,0.431,0.431,0.431,0.431,0.431,0.431,0.432,0.431,0.432,0.432,0.432,0.432,0.432,0.432,0.432,0.433,0.433,0.433,0.433,0.433,0.434,0.434,0.434,0.434,0.434,0.434,0.434,0.434,0.434,0.434,0.434,0.434,0.434,0.434,0.434,0.435,0.435,0.435,0.435,0.435,0.436,0.436,0.437,0.437,0.438,0.438,0.439,0.439,0.439,0.44,0.44,0.44,0.44,0.44,0.44,0.441,0.441,0.441,0.441,0.441,0.442,0.442,0.442,0.442,0.442,0.442,0.442,0.442,0.442,0.442,0.442,0.442,0.442,0.442,0.442,0.442,0.442,0.442,0.442,0.442,0.443,0.443,0.443,0.444,0.444,0.444,0.445,0.445,0.446,0.446,0.446,0.446,0.447,0.447,0.447,0.447,0.447,0.446,0.446,0.446,0.446,0.446,0.446,0.446,0.446,0.446,0.446,0.446,0.447,0.447,0.448,0.448,0.449,0.45,0.45,0.45,0.451,0.451,0.451,0.451,0.451,0.451,0.451,0.45,0.45,0.451,0.451,0.451,0.451,0.451,0.451,0.451,0.451,0.451,0.451,0.451,0.451,0.452,0.452,0.452,0.452,0.452,0.452,0.452,0.452,0.452,0.452,0.452,0.452,0.452,0.453,0.453,0.454,0.454,0.454,0.454,0.454,0.454,0.455,0.455,0.455,0.455,0.455,0.455,0.455,0.456,0.456,0.456,0.456,0.456,0.456,0.457,0.457,0.457,0.457,0.457,0.457,0.457,0.457,0.457,0.457,0.457,0.457,0.457,0.457,0.457,0.457,0.458,0.458,0.458,0.458,0.459,0.459,0.459,0.459,0.459,0.459,0.459,0.46,0.46,0.459,0.46,0.46,0.46,0.46,0.461,0.461,0.461,0.461,0.461,0.462,0.462,0.462,0.462,0.462,0.463,0.463,0.463,0.463,0.463,0.463,0.463,0.463,0.463,0.463,0.463,0.464,0.464,0.464,0.464,0.464,0.465,0.465,0.465,0.466,0.466,0.466,0.466,0.466,0.466,0.467,0.467,0.467,0.466,0.466,0.467,0.468,0.469,0.474,0.478,0.483,0,0.496,0.502,0.507,0.51,0.511,0.511,0.511,0.511,0.511,0.511,0.511,0.51,0.509,0.508,0.507,0.506,0.504,0.503,0.501,0.499,0.497,0.495,0.493,0.491,0.489,0.488,0.486,0.485,0.484,0.483,0.482,0.481,0.481,0.48,0.479,0.479,0.478,0.478,0.477,0.477,0.477,0.477,0.476,0.476,0.475,0.475,0.475,0.475,0.474,0.474,0.474,0.474,0.474,0.473,0.473,0.473,0.473,0.473,0.473,0.473,0.474,0.474,0.474,0.474,0.475,0.475,0.475,0.475,0.476,0.476,0.476,0.476,0.477,0.477,0.477,0.477,0.477,0.477,0.477,0.478,0.478,0.478,0.478,0.478,0.478,0.478,0.479,0.479,0.479,0.48,0.48,0.48,0.48,0.481,0.481,0.481,0.481,0.482,0.482,0.482,0.483,0.483,0.483,0.483,0.483,0.483,0.484,0.484,0.484,0.484,0.484,0.485,0.485,0.485,0.486,0.486,0.486,0.486,0.486,0.487,0.487,0.487,0.487,0.487,0.487,0.487,0.487,0.487,0.487,0.486,0.486,0.486,0.486,0.486,0.487,0.487,0.487,0.488,0.488,0.488,0.489,0.49,0.49,0.49,0.491,0.491,0.492,0.492,0.493,0.493,0.493,0.494,0.494,0.495,0.495,0.495,0.496,0.496,0.496,0.497,0.497,0.497,0.497,0.497,0.497,0.498,0.498,0.498,0.498,0.498,0.498,0.498,0.498,0.498,0.498,0.498,0.498,0.498,0.497,0.497,0.497,0.497,0.497,0.497,0.496,0.496,0.496,0.495,0.495,0.494,0.493,0.493,0.492,0.491,0.491,0.49,0.49,0.488,0.488,0.487,0.487,0.487,0.487,0.487,0.488,0.49,0.491,0.493,0.495,0.496,0.497,0.499,0.499,0.5,0.5,0.5,0.5
0.464,0.464,0.464,0.463,0.463,0.464,0.464,0.464,0.463,0.463,0.463,0.463,0.463,0.464,0.463,0.464,0.464,0.464,0.464,0.464,0.464,0.464,0.464,0.464,0.464,0.464,0.464,0.464,0.464,0.463,0.463,0.461,0.458,0.456,0,0.45,0.446,0.443,0.439,0.436,0,0.431,0.43,0.429,0.428,0.428,0.427,0.426,0.426,0.426,0.426,0.426,0.426,0.426,0.426,0.426,0.427,0.427,0.427,0.428,0.428,0.428,0.428,0.428,0.429,0.429,0.429,0.429,0.429,0.429,0.429,0.429,0.429,0.429,0.43,0.43,0.43,0.43,0.431,0.43,0.431,0.431,0.431,0.431,0.431,0.431,0.431,0.431,0.431,0.432,0.432,0.432,0.432,0.432,0.432,0.432,0.433,0.433,0.433,0.433,0.433,0.434,0.434,0.434,0.434,0.434,0.434,0.434,0.434,0.434,0.434,0.434,0.434,0.434,0.434,0.434,0.435,0.435,0.436,0.436,0.437,0.437,0.437,0.438,0.438,0.439,0.439,0.439,0.439,0.439,0.439,0.44,0.44,0.44,0.44,0.441,0.441,0.441,0.441,0.441,0.441,0.441,0.441,0.441,0.441,0.441,0.441,0.441,0.441,0.441,0.441,0.441,0.441,0.442,0.442,0.442,0.442,0.442,0.442,0.443,0.443,0.443,0.444,0.444,0.444,0.445,0.445,0.445,0.446,0.446,0.445,0.446,0.446,0.446,0.446,0.445,0.446,0.445,0.445,0.445,0.445,0.445,0.445,0.446,0.446,0.446,0.447,0.448,0.448,0.449,0.449,0.45,0.45,0.45,0.45,0.45,0.45,0.45,0.45,0.45,0.45,0.449,0.45,0.45,0.45,0.45,0.45,0.45,0.45,0.45,0.45,0.45,0.45,0.451,0.451,0.451,0.451,0.451,0.451,0.451,0.451,0.451,0.451,0.451,0.452,0.452,0.452,0.452,0.453,0.453,0.453,0.454,0.454,0.454,0.454,0.454,0.454,0.454,0.454,0.454,0.454,0.454,0.455,0.455,0.455,0.455,0.455,0.456,0.456,0.456,0.456,0.456,0.456,0.456,0.456,0.456,0.456,0.456,0.456,0.456,0.456,0.456,0.456,0.456,0.457,0.457,0.457,0.457,0.458,0.458,0.458,0.458,0.458,0.458,0.458,0.458,0.458,0.458,0.459,0.459,0.459,0.46,0.46,0.46,0.46,0.461,0.461,0.461,0.461,0.461,0.462,0.462,0.462,0.462,0.462,0.462,0.462,0.462,0.463,0.463,0.463,0.462,0.463,0.463,0.463,0.463,0.463,0.464,0.464,0.464,0.465,0.465,0.465,0.465,0.466,0.466,0.466,0.466,0.466,0.466,0.466,0.466,0.468,0.469,0.474,0.478,0,0,0.496,0.503,0.506,0.509,0.509,0.51,0.51,0.51,0.51,0.51,0.51,0.509,0.509,0.508,0.507,0.506,0.505,0.504,0.502,0.5,0.497,0.495,0.493,0.491,0.489,0.488,0.486,0.484,0.484,0.483,0.482,0.481,0.48,0.48,0.479,0.478,0.478,0.477,0.477,0.476,0.476,0.476,0.475,0.475,0.475,0.474,0.474,0.474,0.473,0.473,0.473,0.473,0.473,0.473,0.472,0.472,0.472,0.472,0.472,0.473,0.473,0.473,0.473,0.473,0.473,0.474,0.474,0.474,0.474,0.475,0.475,0.475,0.475,0.475,0.476,0.476,0.476,0.476,0.476,0.477,0.477,0.477,0.477,0.477,0.477,0.478,0.478,0.478,0.478,0.478,0.479,0.479,0.48,0.48,0.48,0.48,0.481,0.481,0.481,0.481,0.481,0.481,0.482,0.482,0.482,0.482,0.483,0.483,0.483,0.483,0.483,0.484,0.484,0.484,0.484,0.485,0.485,0.485,0.486,0.486,0.486,0.486,0.486,0.486,0.486,0.486,0.486,0.486,0.486,0.486,0.485,0.485,0.485,0.485,0.486,0.486,0.486,0.486,0.487,0.487,0.488,0.488,0.489,0.49,0.49,0.49,0.491,0.491,0.491,0.492,0.492,0.493,0.493,0.493,0.494,0.494,0.495,0.495,0.495,0.495,0.496,0.496,0.496,0.496,0.497,0.497,0.497,0.497,0.497,0.497,0.497,0.497,0.497,0.497,0.497,0.497,0.497,0.497,0.497,0.497,0.496,0.496,0.496,0.496,0.495,0.495,0.495,0.495,0.494,0.493,0.493,0.492,0.491,0.491,0.49,0.49,0.489,0.489,0.488,0.487,0.486,0.486,0.486,0.486,0.486,0.488,0.489,0.491,0.493,0.494,0.495,0.497,0.497,0.499,0.498,0.498,0.498
0.462,0.463,0,0.463,0.463,0.463,0.463,0.463,0.463,0.463,0.463,0.463,0.463,0.463,0.463,0.463,0.463,0.463,0.463,0.463,0.463,0.463,0.463,0.463,0.463,0.463,0.463,0.463,0.463,0.462,0.462,0.46,0.459,0.457,0.454,0.451,0.448,0.445,0.441,0.438,0,0.432,0.43,0.429,0.427,0.427,0.426,0.425,0.425,0.425,0.425,0.425,0.425,0.425,0.425,0.425,0.426,0.426,0.426,0.427,0.427,0.427,0.427,0.428,0.428,0.428,0.428,0.428,0.428,0.428,0.428,0.429,0.428,0.429,0.429,0.429,0.429,0.43,0.43,0.43,0.43,0.43,0.43,0.431,0.431,0.431,0.431,0.431,0.431,0.431,0.431,0.431,0.431,0.431,0.431,0.431,0.432,0.432,0.432,0.432,0.433,0.433,0.433,0.433,0.433,0.433,0.433,0.433,0.433,0.433,0.433,0.433,0.433,0.433,0.433,0.433,0.434,0.434,0.434,0.435,0.435,0.436,0.436,0.436,0.437,0.437,0.438,0.438,0.438,0.438,0.439,0.439,0.439,0.439,0.439,0.44,0.44,0.44,0.44,0.44,0.44,0.44,0.44,0.44,0.44,0.44,0.44,0.44,0.44,0.44,0.44,0.44,0.441,0.441,0.441,0.441,0.441,0.442,0.442,0.442,0.442,0.443,0.443,0.443,0.443,0.443,0.444,0.444,0.444,0.444,0.444,0.444,0.444,0.444,0.445,0.444,0.445,0.444,0.444,0.444,0.444,0.445,0.445,0.445,0.445,0.446,0.446,0.447,0.447,0.448,0.449,0.449,0.449,0.449,0.45,0.45,0.45,0.449,0.449,0.449,0.449,0.449,0.449,0.449,0.449,0.449,0.449,0.449,0.449,0.449,0.449,0.449,0.45,0.45,0.45,0.45,0.45,0.45,0.45,0.45,0.45,0.45,0.451,0.451,0.451,0.451,0.451,0.452,0.452,0.452,0.453,0.453,0.453,0.453,0.454,0.454,0.453,0.453,0.453,0.453,0.453,0.453,0.453,0.454,0.454,0.454,0.454,0.454,0.455,0.455,0.455,0.455,0.455,0.455,0.455,0.455,0.455,0.455,0.455,0.455,0.455,0.455,0.455,0.455,0.456,0.456,0.456,0.456,0.457,0.457,0.457,0.457,0.457,0.457,0.457,0.457,0.457,0.457,0.458,0.458,0.458,0.459,0.459,0.46,0.46,0.46,0.46,0.461,0.461,0.461,0.461,0.461,0.461,0.461,0.461,0.461,0.461,0.462,0.462,0.462,0.462,0.462,0.462,0.462,0.462,0.462,0.463,0.463,0.463,0.464,0.464,0.464,0.465,0.465,0.465,0.465,0.465,0.465,0.465,0.465,0.465,0.466,0.467,0.469,0.474,0,0,0,0.496,0.503,0.506,0.508,0.509,0.509,0.509,0.509,0.509,0.509,0.509,0.509,0.508,0.508,0.507,0.506,0.506,0.504,0.503,0.501,0.498,0.496,0.493,0.491,0.489,0.488,0.486,0.484,0.483,0.482,0.481,0.481,0.48,0.479,0.478,0.478,0.477,0.477,0.476,0.475,0.475,0.475,0.474,0.474,0.474,0.473,0.473,0.473,0.472,0.472,0.471,0.471,0.471,0.471,0.471,0.471,0.471,0.471,0.471,0.471,0.471,0.472,0.472,0.472,0.472,0.473,0.473,0.473,0.473,0.474,0.474,0.474,0.474,0.474,0.475,0.475,0.475,0.475,0.475,0.475,0.475,0.476,0.476,0.476,0.476,0.477,0.477,0.477,0.477,0.477,0.478,0.478,0.478,0.479,0.479,0.479,0.48,0.48,0.48,0.48,0.48,0.48,0.481,0.481,0.481,0.481,0.481,0.482,0.482,0.482,0.482,0.483,0.483,0.483,0.483,0.484,0.484,0.484,0.484,0.484,0.485,0.485,0.485,0.485,0.485,0.485,0.485,0.484,0.484,0.484,0.484,0.484,0.484,0.484,0.484,0.485,0.485,0.485,0.486,0.486,0.487,0.487,0.488,0.488,0.489,0.489,0.49,0.49,0.49,0.491,0.491,0.491,0.492,0.492,0.493,0.493,0.493,0.494,0.494,0.494,0.495,0.495,0.495,0.495,0.495,0.495,0.496,0.496,0.496,0.496,0.496,0.496,0.496,0.496,0.496,0.496,0.496,0.496,0.496,0.495,0.495,0.495,0.495,0.495,0.495,0.495,0.494,0.494,0.493,0.493,0.492,0.492,0.491,0.491,0.49,0.49,0.49,0.488,0.488,0.487,0.486,0.486,0.485,0.485,0.485,0.486,0.487,0.489,0.49,0.491,0.493,0.494,0.495,0.496,0.496,0.496,0.496
0.461,0.461,0.462,0.462,0.462,0.462,0.462,0.462,0.462,0.462,0.462,0.462,0.462,0.462,0.462,0.462,0.462,0.462,0.462,0.462,0.462,0.462,0.462,0.462,0.462,0.462,0.462,0.462,0.462,0.462,0.461,0.46,0.459,0.457,0.455,0.453,0,0,0,0.439,0,0.433,0.431,0.429,0.427,0.426,0.425,0.425,0.425,0.424,0.424,0.425,0.425,0.425,0.425,0.425,0.425,0.425,0.425,0.425,0.426,0.426,0.426,0.427,0.427,0.427,0.427,0.427,0.427,0.427,0.428,0.428,0.428,0.428,0.428,0.428,0.428,0.429,0.429,0.429,0.429,0.429,0.43,0.429,0.43,0.43,0.43,0.43,0.43,0.43,0.43,0.43,0.43,0.431,0.431,0.431,0.431,0.431,0.431,0.431,0.432,0.432,0.432,0.432,0.432,0.432,0.432,0.432,0.432,0.432,0.433,0.433,0.432,0.432,0.433,0.433,0.433,0.433,0.433,0.434,0.434,0.434,0.435,0.435,0.436,0.436,0.437,0.437,0.437,0.437,0.437,0.438,0.438,0.438,0.439,0.439,0.439,0.439,0.439,0.439,0.439,0.439,0.439,0.439,0.439,0.439,0.439,0.439,0.439,0.439,0.44,0.44,0.44,0.44,0.44,0.44,0.441,0.441,0.441,0.441,0.441,0.441,0.442,0.442,0.442,0.442,0.443,0.443,0.443,0.443,0.443,0.443,0.444,0.444,0.444,0.444,0.444,0.444,0.444,0.444,0.444,0.444,0.444,0.444,0.445,0.445,0.446,0.446,0.447,0.447,0.448,0.448,0.448,0.449,0.449,0.449,0.448,0.448,0.448,0.448,0.448,0.448,0.448,0.447,0.448,0.448,0.448,0.448,0.448,0.448,0.448,0.448,0.449,0.449,0.449,0.449,0.449,0.449,0.449,0.449,0.449,0.45,0.45,0.45,0.45,0.45,0.451,0.451,0.452,0.452,0.452,0.452,0.453,0.453,0.453,0.453,0.452,0.452,0.452,0.452,0.452,0.452,0.452,0.453,0.453,0.453,0.453,0.453,0.454,0.454,0.454,0.454,0.454,0.454,0.454,0.454,0.454,0.454,0.454,0.454,0.454,0.454,0.454,0.454,0.455,0.455,0.455,0.455,0.456,0.456,0.456,0.456,0.456,0.456,0.456,0.457,0.456,0.457,0.457,0.457,0.457,0.458,0.458,0.458,0.459,0.459,0.46,0.46,0.46,0.46,0.46,0.46,0.461,0.461,0.461,0.461,0.461,0.461,0.461,0.461,0.461,0.461,0.461,0.462,0.462,0.462,0.462,0.462,0.462,0.463,0.463,0.464,0.464,0.464,0.465,0.465,0.465,0.465,0.465,0.465,0.465,0.465,0.467,0.47,0.474,0,0.485,0.491,0.498,0.504,0.506,0.507,0.507,0.507,0.508,0.508,0.508,0.508,0.508,0.508,0.508,0.507,0.507,0.506,0.506,0.505,0.504,0.501,0.499,0.497,0.494,0.492,0.49,0.488,0.485,0.483,0.482,0.481,0.481,0.48,0.479,0.478,0.478,0.477,0.477,0.476,0.475,0.475,0.474,0.474,0.474,0.473,0.473,0.472,0.472,0.471,0.471,0.471,0.47,0.47,0.47,0.47,0.47,0.47,0.47,0.47,0.47,0.47,0.47,0.471,0.471,0.471,0.471,0.471,0.471,0.472,0.472,0.473,0.473,0.473,0.473,0.473,0.473,0.474,0.474,0.474,0.474,0.474,0.474,0.475,0.475,0.475,0.475,0.475,0.476,0.476,0.476,0.477,0.477,0.477,0.477,0.478,0.478,0.478,0.478,0.478,0.479,0.479,0.479,0.479,0.48,0.48,0.48,0.48,0.48,0.481,0.481,0.481,0.481,0.481,0.482,0.482,0.482,0.483,0.483,0.483,0.483,0.483,0.484,0.484,0.484,0.484,0.484,0.484,0.483,0.483,0.483,0.483,0.483,0.483,0.483,0.483,0.484,0.484,0.484,0.484,0.485,0.485,0.486,0.486,0.487,0.487,0.488,0.488,0.489,0.489,0.49,0.49,0.49,0.49,0.491,0.491,0.491,0.492,0.492,0.493,0.493,0.493,0.493,0.494,0.494,0.494,0.494,0.495,0.495,0.495,0.495,0.495,0.495,0.495,0.495,0.495,0.495,0.495,0.495,0.495,0.495,0.495,0.495,0.495,0.494,0.494,0.494,0.494,0.493,0.493,0.493,0.493,0.492,0.492,0.491,0.491,0.49,0.49,0.49,0.488,0.488,0.486,0.486,0.485,0.484,0.484,0.484,0.484,0.485,0.487,0.488,0.49,0.491,0.492,0.493,0.493,0.494,0.493,0.493
0.46,0.46,0.46,0.461,0.461,0.461,0.461,0.461,0.461,0.461,0.461,0.461,0.461,0.461,0.461,0.461,0.461,0.461,0.462,0.462,0.462,0.461,0.461,0.462,0.462,0.462,0.462,0.462,0.461,0.461,0.461,0.46,0.459,0.458,0.456,0.454,0,0,0,0.442,0,0,0,0.428,0.426,0.425,0.425,0.424,0.424,0.424,0.424,0.424,0.424,0.424,0.424,0.424,0.424,0.424,0.424,0.425,0.425,0.425,0.426,0.426,0.426,0.426,0.426,0.426,0.426,0.427,0.427,0.427,0.427,0.427,0.427,0.428,0.427,0.428,0.428,0.428,0.428,0.428,0.429,0.429,0.429,0.429,0.429,0.429,0.429,0.429,0.43,0.43,0.43,0.43,0.43,0.43,0.43,0.431,0.431,0.431,0.431,0.431,0.431,0.431,0.432,0.432,0.432,0.432,0.432,0.432,0.432,0.432,0.432,0.432,0.432,0.432,0.432,0.432,0.432,0.433,0.433,0.433,0.434,0.434,0.434,0.435,0.435,0.436,0.436,0.436,0.436,0.437,0.437,0.437,0.438,0.438,0.438,0.438,0.438,0.438,0.438,0.438,0.438,0.438,0.438,0.438,0.439,0.439,0.439,0.439,0.439,0.439,0.439,0.439,0.439,0.439,0.44,0.44,0.44,0.44,0.44,0.44,0.441,0.44,0.441,0.441,0.441,0.442,0.442,0.442,0.442,0.442,0.443,0.443,0.443,0.443,0.443,0.443,0.443,0.443,0.443,0.443,0.443,0.444,0.444,0.445,0.445,0.446,0.446,0.446,0.447,0.447,0.447,0.447,0.448,0.448,0.447,0.447,0.447,0.447,0.447,0.446,0.447,0.446,0.447,0.446,0.447,0.447,0.447,0.447,0.447,0.447,0.448,0.448,0.448,0.448,0.448,0.448,0.448,0.448,0.449,0.449,0.449,0.449,0.449,0.449,0.45,0.45,0.451,0.451,0.451,0.451,0.452,0.452,0.452,0.452,0.452,0.451,0.451,0.451,0.451,0.451,0.451,0.452,0.452,0.452,0.452,0.453,0.453,0.453,0.453,0.453,0.453,0.453,0.453,0.453,0.453,0.453,0.453,0.453,0.453,0.453,0.453,0.453,0.454,0.454,0.454,0.455,0.455,0.455,0.455,0.455,0.455,0.456,0.456,0.456,0.456,0.456,0.456,0.456,0.456,0.457,0.457,0.457,0.458,0.458,0.458,0.459,0.459,0.459,0.459,0.459,0.46,0.46,0.46,0.46,0.46,0.46,0.461,0.461,0.461,0.461,0.461,0.461,0.461,0.461,0.461,0.462,0.462,0.462,0.463,0.463,0.463,0.464,0.464,0.464,0.464,0.464,0.464,0.465,0.465,0.465,0.467,0.47,0.475,0,0.487,0.493,0.499,0.504,0.506,0.506,0.506,0.507,0.507,0.507,0.507,0.507,0.508,0.507,0.507,0.507,0.506,0.506,0.506,0.505,0.504,0.502,0.5,0.497,0.495,0.492,0.49,0.488,0.485,0.483,0.482,0.481,0.48,0.479,0.479,0.478,0.477,0.477,0.476,0.475,0.475,0.474,0.474,0.473,0.473,0.472,0.472,0.471,0.471,0.47,0.47,0.47,0.469,0.469,0.469,0.469,0.469,0.469,0.469,0.469,0.469,0.469,0.469,0.47,0.47,0.47,0.47,0.47,0.471,0.471,0.471,0.471,0.471,0.472,0.472,0.472,0.472,0.473,0.473,0.473,0.473,0.473,0.473,0.474,0.474,0.474,0.474,0.474,0.475,0.475,0.475,0.475,0.475,0.476,0.476,0.477,0.477,0.477,0.477,0.477,0.478,0.478,0.478,0.478,0.478,0.479,0.479,0.479,0.479,0.48,0.48,0.48,0.48,0.48,0.481,0.481,0.481,0.481,0.481,0.482,0.482,0.482,0.482,0.483,0.483,0.483,0.483,0.483,0.482,0.482,0.482,0.482,0.482,0.482,0.482,0.482,0.483,0.483,0.483,0.483,0.484,0.484,0.485,0.485,0.486,0.486,0.487,0.487,0.488,0.488,0.488,0.489,0.489,0.49,0.49,0.49,0.49,0.491,0.491,0.491,0.492,0.492,0.493,0.493,0.493,0.493,0.493,0.493,0.493,0.493,0.494,0.494,0.494,0.494,0.494,0.494,0.494,0.494,0.494,0.494,0.494,0.494,0.494,0.494,0.493,0.493,0.493,0.493,0.493,0.493,0.492,0.492,0.491,0.491,0.491,0.491,0.49,0.49,0.489,0.488,0.487,0.486,0.485,0.484,0.484,0.483,0.483,0.483,0.483,0.484,0.486,0.487,0.488,0.489,0.49,0.491,0.491,0.491,0.491
0.459,0.459,0.459,0.459,0.46,0.459,0.46,0.46,0.46,0.46,0.46,0.46,0.46,0.46,0.46,0.46,0.46,0.46,0.461,0.461,0.461,0.461,0.461,0.46,0.46,0.46,0.461,0.461,0.46,0.46,0.46,0.459,0.458,0.458,0.457,0.455,0,0,0,0,0,0,0.431,0.428,0.425,0.425,0.424,0.424,0.423,0.423,0.423,0.423,0.423,0.423,0.423,0.423,0.423,0.424,0.424,0.424,0.424,0.425,0.425,0.425,0.425,0.425,0.425,0.425,0.426,0.426,0.426,0.426,0.426,0.426,0.427,0.427,0.427,0.427,0.427,0.427,0.427,0.427,0.428,0.428,0.428,0.428,0.428,0.428,0.428,0.429,0.429,0.429,0.429,0.429,0.429,0.43,0.43,0.43,0.43,0.43,0.431,0.431,0.431,0.431,0.431,0.431,0.431,0.431,0.431,0.431,0.431,0.431,0.431,0.431,0.431,0.431,0.431,0.431,0.431,0.431,0.432,0.432,0.432,0.433,0.433,0.434,0.434,0.434,0.435,0.435,0.435,0.436,0.436,0.437,0.437,0.437,0.437,0.437,0.437,0.437,0.437,0.437,0.437,0.437,0.437,0.437,0.438,0.438,0.438,0.438,0.438,0.438,0.439,0.438,0.439,0.439,0.439,0.439,0.439,0.439,0.439,0.439,0.44,0.44,0.44,0.44,0.441,0.441,0.441,0.441,0.442,0.442,0.442,0.442,0.443,0.443,0.443,0.443,0.443,0.443,0.443,0.443,0.443,0.443,0.443,0.444,0.444,0.445,0.445,0.446,0.446,0.446,0.446,0.446,0.446,0.446,0.446,0.446,0.446,0.446,0.446,0.446,0.446,0.446,0.446,0.446,0.446,0.446,0.446,0.446,0.446,0.446,0.447,0.447,0.447,0.447,0.447,0.447,0.447,0.447,0.448,0.448,0.448,0.448,0.449,0.449,0.449,0.449,0.45,0.45,0.45,0.45,0.451,0.451,0.45,0.45,0.45,0.45,0.45,0.45,0.45,0.45,0.451,0.451,0.451,0.451,0.452,0.452,0.452,0.452,0.452,0.453,0.453,0.452,0.452,0.452,0.452,0.452,0.452,0.452,0.452,0.452,0.452,0.452,0.453,0.453,0.453,0.454,0.454,0.454,0.454,0.455,0.455,0.455,0.455,0.455,0.455,0.455,0.455,0.456,0.456,0.456,0.456,0.456,0.457,0.457,0.457,0.458,0.458,0.458,0.458,0.458,0.458,0.459,0.459,0.459,0.46,0.46,0.46,0.46,0.46,0.46,0.46,0.46,0.46,0.46,0.46,0.461,0.461,0.461,0.462,0.462,0.462,0.463,0.464,0.464,0.464,0.464,0.464,0.464,0.465,0.464,0.467,0.471,0.476,0,0.488,0.494,0.5,0.504,0.505,0.505,0.506,0.506,0.506,0.506,0.506,0.506,0.506,0.506,0.506,0.506,0.506,0.506,0.506,0.505,0.504,0.502,0.5,0.498,0.495,0.493,0.49,0.488,0.485,0.483,0.482,0.48,0.48,0.479,0.478,0.477,0.477,0.476,0.475,0.475,0.474,0.474,0.473,0.473,0.472,0.471,0.471,0.47,0.47,0.47,0.469,0.469,0.469,0.469,0.468,0.468,0.468,0.468,0.468,0.468,0.468,0.468,0.469,0.469,0.469,0.469,0.469,0.469,0.47,0.47,0.47,0.47,0.47,0.471,0.471,0.471,0.471,0.471,0.471,0.472,0.472,0.472,0.472,0.473,0.473,0.473,0.473,0.474,0.474,0.474,0.474,0.474,0.475,0.475,0.475,0.475,0.476,0.476,0.476,0.477,0.477,0.477,0.477,0.477,0.478,0.478,0.478,0.478,0.478,0.478,0.479,0.479,0.479,0.479,0.48,0.48,0.48,0.48,0.48,0.481,0.481,0.481,0.481,0.481,0.481,0.481,0.481,0.481,0.481,0.481,0.481,0.481,0.481,0.481,0.481,0.481,0.481,0.482,0.482,0.483,0.483,0.483,0.484,0.484,0.485,0.486,0.486,0.486,0.487,0.487,0.488,0.488,0.488,0.489,0.489,0.489,0.49,0.49,0.49,0.491,0.491,0.491,0.491,0.492,0.492,0.492,0.492,0.492,0.492,0.492,0.493,0.493,0.493,0.493,0.493,0.493,0.493,0.493,0.493,0.493,0.493,0.493,0.493,0.493,0.493,0.493,0.493,0.492,0.492,0.492,0.492,0.491,0.491,0.491,0.491,0.49,0.49,0.49,0.489,0.488,0.487,0.486,0.485,0.484,0.483,0.483,0.482,0.482,0.482,0.483,0.484,0.485,0.486,0.486,0.487,0.488,0.488,0.489,0.489
0.458,0.458,0.458,0.458,0.458,0.458,0.459,0.459,0.459,0.459,0.46,0.46,0.46,0.46,0.46,0.46,0.46,0.46,0.46,0.46,0.46,0.46,0.46,0.46,0.46,0.46,0.46,0.46,0.46,0.459,0.459,0.459,0.458,0.458,0.457,0.456,0.456,0.454,0.451,0.446,0,0,0,0,0.425,0.424,0.423,0.423,0.422,0.422,0.422,0.423,0.422,0.422,0.422,0.423,0.423,0.423,0.423,0.423,0.424,0.424,0.424,0.424,0.425,0.425,0.425,0.425,0.425,0.425,0.425,0.425,0.425,0.425,0.426,0.426,0.426,0.426,0.426,0.426,0.426,0.426,0.427,0.427,0.427,0.427,0.427,0.428,0.428,0.428,0.428,0.428,0.428,0.428,0.429,0.429,0.429,0.429,0.429,0.43,0.43,0.43,0.43,0.43,0.43,0.43,0.43,0.43,0.43,0.43,0.43,0.43,0.43,0.43,0.43,0.43,0.43,0.43,0.43,0.43,0.431,0.431,0.431,0.432,0.432,0.433,0.433,0.434,0.434,0.434,0.434,0.435,0.435,0.436,0.436,0.436,0.436,0.436,0.436,0.436,0.436,0.436,0.436,0.436,0.436,0.436,0.437,0.437,0.437,0.437,0.437,0.437,0.437,0.438,0.438,0.438,0.438,0.438,0.438,0.438,0.438,0.439,0.439,0.439,0.439,0.44,0.44,0.44,0.44,0.441,0.441,0.441,0.441,0.442,0.442,0.442,0.442,0.442,0.442,0.442,0.442,0.442,0.443,0.443,0.443,0.443,0.444,0.444,0.444,0.445,0.445,0.445,0.445,0.445,0.446,0.445,0.445,0.445,0.445,0.445,0.445,0.445,0.445,0.445,0.445,0.445,0.445,0.445,0.445,0.445,0.446,0.446,0.446,0.446,0.446,0.446,0.446,0.446,0.446,0.447,0.447,0.447,0.447,0.447,0.448,0.448,0.448,0.449,0.449,0.449,0.449,0.449,0.45,0.449,0.449,0.449,0.449,0.449,0.449,0.449,0.449,0.449,0.45,0.45,0.45,0.45,0.451,0.451,0.451,0.451,0.452,0.452,0.452,0.451,0.452,0.451,0.452,0.451,0.451,0.451,0.451,0.451,0.451,0.452,0.452,0.452,0.452,0.453,0.453,0.453,0.453,0.454,0.454,0.454,0.454,0.455,0.454,0.454,0.455,0.455,0.455,0.455,0.455,0.456,0.456,0.456,0.456,0.457,0.457,0.457,0.457,0.457,0.458,0.458,0.458,0.458,0.458,0.458,0.459,0.459,0.459,0.459,0.459,0.459,0.459,0.459,0.459,0.46,0.46,0.461,0.461,0.461,0.461,0.462,0.462,0.463,0.463,0.463,0.463,0.464,0.464,0.465,0.468,0.473,0.478,0,0,0.495,0.5,0.504,0.504,0.504,0.505,0.505,0.505,0.506,0.506,0.506,0.506,0.506,0.506,0.506,0.506,0.505,0.505,0.505,0.504,0.503,0.501,0.499,0.496,0.493,0.491,0.488,0.485,0.483,0.482,0.48,0.479,0.478,0.478,0.477,0.476,0.475,0.475,0.474,0.474,0.473,0.472,0.471,0.471,0.47,0.47,0.469,0.469,0.469,0.468,0.468,0.468,0.468,0.468,0.467,0.467,0.467,0.467,0.467,0.468,0.468,0.468,0.468,0.468,0.468,0.468,0.469,0.469,0.469,0.469,0.469,0.47,0.47,0.47,0.47,0.47,0.47,0.471,0.471,0.471,0.471,0.471,0.471,0.472,0.472,0.472,0.473,0.473,0.473,0.473,0.473,0.474,0.474,0.474,0.474,0.475,0.475,0.475,0.475,0.476,0.476,0.476,0.476,0.477,0.477,0.477,0.477,0.478,0.478,0.478,0.478,0.478,0.478,0.479,0.479,0.479,0.479,0.479,0.48,0.48,0.48,0.48,0.48,0.48,0.48,0.48,0.48,0.48,0.48,0.48,0.48,0.48,0.48,0.48,0.48,0.48,0.481,0.481,0.481,0.482,0.483,0.483,0.483,0.484,0.484,0.485,0.486,0.486,0.486,0.487,0.487,0.488,0.488,0.488,0.488,0.489,0.489,0.489,0.49,0.49,0.49,0.49,0.491,0.491,0.491,0.491,0.491,0.491,0.491,0.491,0.491,0.492,0.492,0.492,0.492,0.492,0.492,0.492,0.492,0.492,0.492,0.492,0.492,0.492,0.492,0.492,0.492,0.492,0.491,0.491,0.491,0.491,0.49,0.49,0.49,0.49,0.489,0.489,0.488,0.487,0.486,0.486,0.484,0.484,0.483,0.482,0.481,0.481,0.482,0.483,0.483,0.483,0.484,0.484,0.485,0.486,0.486,0.486
0.457,0.457,0.457,0.457,0.457,0.457,0.458,0.458,0.458,0.458,0.458,0.459,0.459,0.459,0.458,0.459,0.459,0.459,0.459,0.459,0.459,0.459,0.459,0.459,0.459,0.459,0.459,0.459,0.459,0.458,0.458,0.458,0.458,0.457,0.457,0.456,0.456,0.454,0.453,0.448,0,0.436,0,0.427,0.424,0.424,0.423,0.422,0.422,0.422,0.422,0.422,0.422,0.421,0.422,0.422,0.422,0.422,0.423,0.423,0.423,0.423,0.423,0.424,0.424,0.424,0.424,0.424,0.424,0.424,0.424,0.425,0.425,0.425,0.425,0.425,0.425,0.425,0.425,0.425,0.426,0.426,0.426,0.426,0.426,0.426,0.426,0.427,0.427,0.427,0.427,0.427,0.428,0.428,0.428,0.428,0.428,0.428,0.428,0.429,0.429,0.429,0.429,0.429,0.429,0.429,0.429,0.429,0.429,0.429,0.429,0.429,0.429,0.429,0.429,0.429,0.429,0.429,0.429,0.429,0.43,0.43,0.431,0.431,0.431,0.432,0.432,0.433,0.433,0.433,0.434,0.434,0.434,0.434,0.435,0.435,0.435,0.435,0.435,0.435,0.435,0.435,0.435,0.435,0.435,0.435,0.436,0.436,0.436,0.436,0.436,0.436,0.437,0.437,0.437,0.436,0.437,0.437,0.437,0.437,0.438,0.438,0.438,0.438,0.438,0.439,0.439,0.439,0.439,0.44,0.44,0.44,0.441,0.441,0.441,0.441,0.442,0.442,0.442,0.442,0.442,0.442,0.442,0.442,0.442,0.442,0.442,0.443,0.443,0.444,0.444,0.444,0.444,0.444,0.444,0.444,0.444,0.444,0.444,0.444,0.444,0.443,0.444,0.444,0.444,0.444,0.444,0.444,0.444,0.444,0.444,0.445,0.445,0.445,0.445,0.445,0.445,0.446,0.446,0.446,0.446,0.446,0.446,0.446,0.447,0.447,0.447,0.448,0.448,0.448,0.448,0.448,0.448,0.448,0.448,0.448,0.448,0.448,0.448,0.448,0.448,0.449,0.449,0.449,0.449,0.449,0.45,0.45,0.45,0.451,0.451,0.451,0.451,0.451,0.451,0.451,0.451,0.451,0.451,0.451,0.451,0.451,0.451,0.451,0.451,0.451,0.452,0.452,0.452,0.453,0.453,0.453,0.453,0.454,0.454,0.454,0.454,0.454,0.454,0.454,0.454,0.454,0.455,0.455,0.455,0.455,0.456,0.456,0.456,0.456,0.456,0.456,0.457,0.457,0.457,0.457,0.458,0.458,0.458,0.458,0.458,0.458,0.458,0.458,0.458,0.458,0.458,0.458,0.459,0.459,0.46,0.46,0.461,0.461,0.462,0.462,0.462,0.463,0.463,0.464,0.464,0.465,0.469,0.474,0.479,0,0,0.496,0.5,0.503,0.503,0.504,0.504,0.504,0.504,0.505,0.505,0.505,0.505,0.505,0.505,0.505,0.505,0.505,0.504,0.504,0.504,0.503,0.501,0.499,0.496,0.494,0.491,0.488,0.486,0.483,0.482,0.48,0.479,0.478,0.477,0.477,0.476,0.475,0.474,0.474,0.473,0.472,0.471,0.471,0.47,0.47,0.469,0.469,0.468,0.468,0.468,0.467,0.467,0.467,0.467,0.466,0.466,0.466,0.466,0.466,0.466,0.466,0.467,0.467,0.467,0.468,0.468,0.468,0.468,0.468,0.469,0.469,0.469,0.469,0.469,0.469,0.469,0.469,0.47,0.47,0.47,0.47,0.47,0.471,0.471,0.471,0.471,0.471,0.471,0.472,0.472,0.472,0.473,0.473,0.473,0.473,0.474,0.474,0.474,0.474,0.475,0.475,0.475,0.475,0.476,0.476,0.476,0.477,0.477,0.477,0.477,0.477,0.477,0.477,0.478,0.478,0.478,0.478,0.478,0.478,0.478,0.479,0.479,0.479,0.479,0.479,0.479,0.479,0.479,0.479,0.479,0.479,0.479,0.479,0.479,0.479,0.48,0.48,0.48,0.481,0.481,0.481,0.482,0.483,0.483,0.484,0.484,0.485,0.485,0.486,0.486,0.487,0.487,0.487,0.488,0.488,0.488,0.488,0.488,0.489,0.489,0.489,0.49,0.49,0.49,0.49,0.49,0.49,0.49,0.49,0.49,0.491,0.491,0.491,0.491,0.491,0.491,0.491,0.491,0.491,0.491,0.491,0.491,0.491,0.491,0.491,0.491,0.491,0.491,0.491,0.491,0.49,0.49,0.49,0.49,0.49,0.489,0.489,0.489,0.488,0.487,0.486,0.486,0.485,0.484,0.483,0.481,0.481,0.48,0.481,0.481,0.481,0.481,0.481,0.482,0.483,0.483,0.484,0.484
0.456,0.456,0.456,0.456,0.456,0.457,0.457,0.457,0.457,0.457,0.458,0.458,0.458,0.458,0.458,0.458,0.458,0.458,0.458,0.458,0.458,0.458,0.458,0.458,0.458,0.458,0.458,0.458,0.458,0.458,0.457,0.457,0.457,0.456,0.456,0.456,0.455,0.454,0.454,0.45,0,0,0,0,0.425,0.424,0.423,0.422,0.422,0.421,0.421,0.421,0.421,0.421,0.421,0.421,0.421,0.422,0.422,0.422,0.422,0.423,0.423,0.423,0.423,0.423,0.423,0.423,0.423,0.423,0.423,0.424,0.424,0.424,0.424,0.424,0.425,0.425,0.425,0.425,0.425,0.425,0.425,0.425,0.425,0.425,0.426,0.426,0.426,0.426,0.426,0.426,0.427,0.427,0.427,0.427,0.427,0.428,0.428,0.428,0.428,0.428,0.428,0.428,0.428,0.428,0.428,0.428,0.428,0.428,0.428,0.428,0.428,0.428,0.428,0.428,0.428,0.428,0.428,0.429,0.429,0.429,0.429,0.43,0.43,0.431,0.431,0.431,0.432,0.432,0.433,0.433,0.433,0.434,0.434,0.434,0.434,0.434,0.434,0.434,0.434,0.434,0.434,0.434,0.434,0.434,0.435,0.435,0.435,0.435,0.435,0.435,0.436,0.436,0.435,0.435,0.436,0.436,0.436,0.436,0.437,0.437,0.437,0.437,0.438,0.438,0.438,0.438,0.439,0.439,0.439,0.439,0.44,0.44,0.44,0.441,0.441,0.441,0.441,0.441,0.441,0.441,0.441,0.441,0.441,0.441,0.442,0.442,0.442,0.443,0.443,0.443,0.443,0.443,0.443,0.443,0.443,0.443,0.443,0.442,0.442,0.442,0.443,0.442,0.443,0.443,0.443,0.443,0.443,0.443,0.444,0.444,0.444,0.444,0.444,0.444,0.444,0.445,0.445,0.445,0.445,0.445,0.445,0.446,0.446,0.446,0.446,0.447,0.447,0.447,0.447,0.447,0.447,0.447,0.447,0.447,0.447,0.447,0.447,0.447,0.447,0.447,0.448,0.448,0.448,0.449,0.449,0.449,0.45,0.45,0.45,0.45,0.45,0.45,0.45,0.45,0.45,0.45,0.45,0.45,0.45,0.45,0.45,0.45,0.45,0.45,0.451,0.451,0.452,0.452,0.452,0.452,0.453,0.453,0.453,0.453,0.453,0.453,0.453,0.453,0.453,0.454,0.454,0.454,0.454,0.455,0.455,0.455,0.455,0.455,0.455,0.456,0.456,0.456,0.456,0.456,0.457,0.456,0.457,0.457,0.457,0.457,0.457,0.457,0.457,0.457,0.457,0.458,0.458,0.458,0.459,0.459,0.46,0.46,0.461,0.461,0.461,0.462,0.463,0.463,0.464,0.465,0.469,0,0,0,0.491,0.496,0.5,0.502,0.502,0.503,0.503,0.503,0.504,0.504,0.504,0.504,0.504,0.504,0.504,0.504,0.504,0.504,0.504,0.504,0.504,0.502,0.501,0.499,0.497,0.494,0.492,0.489,0.486,0.484,0.482,0.48,0.479,0.478,0.477,0.476,0.475,0.475,0.474,0.473,0.472,0.471,0.471,0.47,0.469,0.469,0.468,0.468,0.467,0.467,0.466,0.466,0.466,0.466,0.466,0.466,0.466,0.466,0.466,0.466,0.466,0.466,0.466,0.466,0.466,0.466,0.467,0.467,0.467,0.468,0.468,0.468,0.468,0.468,0.468,0.468,0.468,0.469,0.469,0.469,0.469,0.469,0.469,0.47,0.47,0.47,0.47,0.47,0.47,0.471,0.471,0.471,0.471,0.472,0.472,0.472,0.473,0.473,0.473,0.473,0.474,0.474,0.474,0.474,0.475,0.475,0.475,0.475,0.476,0.476,0.476,0.476,0.477,0.477,0.477,0.477,0.477,0.477,0.477,0.477,0.477,0.478,0.478,0.478,0.478,0.478,0.478,0.478,0.478,0.478,0.478,0.478,0.478,0.478,0.478,0.478,0.479,0.479,0.48,0.48,0.48,0.481,0.481,0.482,0.482,0.483,0.483,0.484,0.484,0.485,0.486,0.486,0.486,0.487,0.487,0.488,0.488,0.488,0.488,0.488,0.488,0.488,0.489,0.489,0.489,0.489,0.489,0.489,0.489,0.49,0.49,0.49,0.49,0.49,0.49,0.49,0.49,0.491,0.491,0.491,0.491,0.491,0.491,0.491,0.491,0.491,0.491,0.491,0.49,0.49,0.49,0.49,0.49,0.489,0.489,0.489,0.489,0.488,0.488,0.488,0.487,0.486,0.486,0.484,0.484,0.483,0.481,0.481,0.48,0.48,0.48,0.48,0.48,0.48,0.481,0.481,0.481,0.481,0.482
0.455,0.456,0.456,0.456,0.456,0.456,0.456,0.456,0.456,0.457,0.457,0.457,0.457,0.457,0.457,0.457,0.457,0.457,0.457,0.457,0.457,0.457,0.457,0.457,0.457,0.457,0.457,0.457,0.457,0.457,0.457,0.457,0.456,0.455,0.455,0.455,0.454,0.454,0.453,0.451,0,0.442,0,0,0,0.424,0.423,0.422,0.421,0.421,0.421,0.42,0.42,0.42,0.42,0.421,0.421,0.421,0.421,0.421,0.421,0.422,0.422,0.422,0.422,0.422,0.422,0.423,0.423,0.423,0.423,0.423,0.423,0.423,0.423,0.423,0.424,0.424,0.424,0.424,0.424,0.424,0.424,0.425,0.425,0.425,0.425,0.425,0.425,0.425,0.425,0.425,0.426,0.426,0.426,0.426,0.426,0.427,0.427,0.427,0.427,0.427,0.427,0.427,0.427,0.427,0.427,0.427,0.427,0.427,0.427,0.427,0.427,0.428,0.428,0.428,0.428,0.428,0.428,0.428,0.428,0.428,0.429,0.429,0.429,0.43,0.43,0.431,0.431,0.431,0.432,0.432,0.432,0.433,0.433,0.433,0.433,0.433,0.433,0.433,0.433,0.433,0.433,0.433,0.434,0.434,0.434,0.434,0.434,0.434,0.434,0.434,0.434,0.435,0.434,0.434,0.435,0.435,0.435,0.435,0.436,0.436,0.436,0.437,0.437,0.437,0.437,0.437,0.438,0.438,0.438,0.439,0.439,0.439,0.439,0.44,0.44,0.44,0.44,0.44,0.44,0.44,0.44,0.44,0.441,0.441,0.441,0.441,0.441,0.441,0.441,0.441,0.442,0.441,0.441,0.441,0.441,0.441,0.441,0.441,0.441,0.441,0.442,0.441,0.442,0.442,0.442,0.442,0.442,0.442,0.442,0.443,0.443,0.443,0.443,0.443,0.443,0.444,0.444,0.444,0.444,0.445,0.444,0.445,0.445,0.445,0.446,0.446,0.446,0.446,0.446,0.446,0.446,0.446,0.446,0.446,0.446,0.446,0.446,0.446,0.446,0.447,0.447,0.447,0.448,0.448,0.448,0.448,0.449,0.449,0.449,0.449,0.449,0.449,0.449,0.45,0.45,0.449,0.449,0.449,0.449,0.449,0.449,0.449,0.449,0.45,0.45,0.45,0.451,0.451,0.451,0.452,0.452,0.452,0.452,0.452,0.452,0.452,0.453,0.453,0.453,0.453,0.453,0.454,0.454,0.454,0.454,0.454,0.454,0.455,0.455,0.455,0.455,0.455,0.455,0.455,0.456,0.456,0.456,0.456,0.456,0.456,0.456,0.456,0.456,0.457,0.457,0.457,0.458,0.458,0.458,0.458,0.459,0.459,0.46,0.46,0.461,0.461,0.462,0.463,0.463,0.465,0.47,0,0,0,0.491,0.496,0.499,0.501,0.501,0.502,0.502,0.502,0.503,0.503,0.503,0.503,0.503,0.503,0.503,0.504,0.504,0.503,0.503,0.503,0.503,0.502,0.501,0.499,0,0.495,0.493,0.49,0.487,0.484,0.483,0.481,0.479,0.478,0.477,0.476,0.475,0.474,0.474,0.473,0.472,0.471,0.47,0.469,0.469,0.468,0.468,0.467,0.466,0.466,0.466,0.466,0.466,0.465,0.465,0.465,0.465,0.465,0.465,0.465,0.465,0.465,0.465,0.465,0.466,0.466,0.466,0.466,0.466,0.466,0.467,0.467,0.467,0.467,0.467,0.467,0.468,0.468,0.468,0.468,0.468,0.468,0.468,0.469,0.469,0.469,0.469,0.469,0.469,0.47,0.47,0.47,0.47,0.471,0.471,0.471,0.471,0.472,0.472,0.473,0.473,0.473,0.473,0.474,0.474,0.474,0.474,0.475,0.475,0.475,0.475,0.475,0.475,0.475,0.476,0.475,0.476,0.476,0.476,0.476,0.477,0.477,0.477,0.477,0.477,0.477,0.477,0.477,0.477,0.477,0.477,0.477,0.477,0.478,0.478,0.478,0.478,0.478,0.479,0.479,0.48,0.48,0.48,0.481,0.481,0.482,0.483,0.483,0.484,0.484,0.485,0.485,0.486,0.486,0.486,0.487,0.487,0.487,0.487,0.488,0.488,0.488,0.488,0.488,0.488,0.488,0.488,0.488,0.488,0.488,0.489,0.489,0.489,0.489,0.489,0.49,0.49,0.49,0.49,0.49,0.49,0.49,0.49,0.49,0.49,0.49,0.49,0.49,0.49,0.49,0.489,0.489,0.489,0.489,0.488,0.488,0.488,0.488,0.488,0.487,0.486,0.486,0.485,0.484,0.483,0.483,0.481,0.48,0.48,0.48,0.479,0.479,0.479,0.479,0.479,0.479,0.48,0.48,0.48
0.455,0.455,0.455,0.455,0.455,0.455,0.455,0.455,0.456,0.456,0.456,0.456,0.456,0.456,0.456,0.456,0.456,0.456,0.456,0.456,0.456,0.456,0.456,0.456,0.456,0.456,0.456,0.456,0.456,0.456,0.456,0.456,0.455,0.455,0.455,0.454,0.454,0.453,0.452,0,0,0,0,0,0,0.425,0.423,0.422,0.421,0.42,0.42,0.42,0.419,0.419,0.419,0.42,0.42,0.42,0.421,0.421,0.421,0.421,0.421,0.421,0.421,0.421,0.422,0.422,0.422,0.422,0.422,0.422,0.422,0.422,0.423,0.423,0.423,0.423,0.423,0.423,0.424,0.424,0.424,0.424,0.424,0.424,0.424,0.424,0.425,0.425,0.425,0.425,0.425,0.425,0.425,0.425,0.425,0.426,0.426,0.426,0.426,0.426,0.426,0.426,0.426,0.426,0.426,0.426,0.426,0.426,0.426,0.426,0.426,0.426,0.427,0.427,0.427,0.427,0.427,0.428,0.428,0.428,0.428,0.428,0.428,0.429,0.429,0.43,0.43,0.431,0.431,0.431,0.431,0.432,0.432,0.432,0.432,0.432,0.432,0.432,0.432,0.432,0.432,0.433,0.433,0.433,0.433,0.433,0,0,0.433,0.434,0.434,0.434,0.434,0.434,0.434,0.434,0.434,0.434,0.434,0.435,0.435,0.435,0.436,0.436,0.436,0.437,0.437,0.437,0.437,0.438,0.438,0.438,0.438,0.439,0.439,0.439,0.439,0.439,0.439,0.439,0.439,0.44,0.44,0.44,0.44,0.44,0.44,0.44,0.44,0.44,0.44,0.44,0.44,0.44,0.44,0.44,0.44,0.44,0.44,0.44,0.44,0.441,0.441,0.441,0.441,0.441,0.441,0.441,0.442,0.442,0.442,0.442,0.442,0.442,0.443,0.443,0.443,0.443,0.443,0.444,0.443,0.444,0.444,0.444,0.444,0.445,0.445,0.445,0.445,0.446,0.445,0.445,0.445,0.446,0.445,0.445,0.445,0.445,0.446,0.446,0.446,0.446,0.447,0.447,0.447,0.447,0.448,0.448,0.448,0.449,0.449,0.449,0.449,0.449,0.449,0.449,0.448,0.448,0.448,0.448,0.448,0.448,0.449,0.449,0.449,0.449,0.45,0.45,0.45,0.451,0.451,0.451,0.451,0.452,0.452,0.452,0.452,0.452,0.452,0.452,0.453,0.453,0.453,0.453,0.453,0.454,0.454,0.454,0.454,0.454,0.454,0.454,0.454,0.454,0.455,0.455,0.455,0.455,0.455,0.455,0.455,0.456,0.456,0.456,0.456,0.456,0.457,0.457,0.457,0.457,0.458,0.458,0.458,0.459,0.46,0.46,0.461,0.462,0.463,0.466,0.47,0,0,0.486,0.491,0.496,0.499,0.5,0.501,0.501,0.501,0.501,0.501,0.501,0.502,0.502,0.502,0.502,0.502,0.503,0.503,0.503,0.503,0.502,0.502,0.501,0.501,0.499,0.497,0.495,0.493,0.491,0.488,0.486,0.483,0.481,0.48,0.478,0.477,0.476,0.475,0.474,0.473,0.472,0.471,0.47,0.469,0.469,0.468,0.468,0.467,0.466,0.466,0.466,0.465,0.465,0.465,0.465,0.465,0.465,0.465,0.465,0.464,0.464,0.464,0.465,0.465,0.465,0.465,0.465,0.465,0.465,0.465,0.465,0.466,0.466,0.466,0.466,0.466,0.466,0.466,0.467,0.467,0.467,0.467,0.467,0.468,0.468,0.468,0.468,0.468,0.468,0.469,0.469,0.469,0.469,0.469,0.47,0.47,0.47,0.471,0.471,0.471,0.471,0.472,0.472,0.473,0.473,0.473,0.473,0.474,0.474,0.474,0.474,0.474,0.474,0.474,0.475,0.475,0.475,0.475,0.475,0.475,0.475,0.475,0.475,0.475,0.475,0.475,0.476,0.476,0.476,0.476,0.476,0.477,0.477,0.477,0.477,0.477,0.477,0.477,0.478,0.478,0.478,0.478,0.479,0.48,0.48,0.48,0.481,0.481,0.482,0.483,0.483,0.484,0.484,0.485,0.485,0.486,0.486,0.486,0.486,0.486,0.487,0.487,0.487,0.487,0.487,0.487,0.487,0.487,0.488,0.488,0.488,0.488,0.488,0.488,0.488,0.488,0.488,0.489,0.489,0.489,0.489,0.489,0.489,0.49,0.49,0.49,0.489,0.489,0.489,0.489,0.489,0.488,0.488,0.488,0.488,0.488,0.488,0.487,0.487,0.487,0.486,0.486,0.485,0.485,0.484,0.483,0.482,0.481,0.48,0.48,0.479,0.479,0.479,0.478,0.478,0.478,0.478,0.478,0.478,0.478
0.454,0.454,0.454,0.454,0.454,0.454,0.454,0.454,0.455,0.455,0.455,0.455,0.455,0.455,0.455,0.455,0.455,0.455,0.456,0.456,0.456,0.456,0.456,0.455,0.455,0.455,0.455,0.455,0.455,0.455,0.455,0.455,0.455,0.454,0.454,0.453,0.453,0.452,0.452,0,0,0,0,0.434,0,0,0.423,0.422,0.421,0.419,0.419,0.419,0.419,0.419,0.419,0.419,0.419,0.42,0.42,0.42,0.42,0.42,0.42,0.421,0.421,0.421,0.421,0.421,0.421,0.421,0.421,0.421,0.421,0.421,0.422,0.422,0.422,0.423,0.423,0.423,0.423,0.423,0.423,0.423,0.423,0.423,0.424,0.424,0.424,0.424,0.424,0.424,0.424,0.424,0.424,0.425,0.425,0.425,0.425,0.425,0.425,0.425,0.425,0.425,0.425,0.425,0.425,0.425,0.425,0.425,0.425,0.425,0.425,0.425,0.426,0.426,0.426,0.426,0.426,0.427,0.427,0.427,0.428,0.428,0.428,0.428,0.429,0.429,0.429,0.43,0.43,0.43,0.431,0.431,0.431,0.431,0.431,0.431,0.431,0.431,0.432,0.432,0.432,0.432,0.432,0.432,0.432,0.432,0,0.432,0.432,0.433,0.433,0.433,0.433,0.433,0.433,0.433,0.433,0.434,0.434,0.434,0.434,0.434,0.435,0.435,0.435,0.435,0.436,0.436,0.436,0.436,0.437,0.437,0.437,0.438,0.438,0.438,0.438,0.438,0.438,0.439,0.439,0.439,0.439,0.439,0.439,0.439,0.439,0.439,0.439,0.439,0.439,0.439,0.439,0.439,0.439,0.439,0.439,0.439,0.439,0.439,0.44,0.44,0.44,0.44,0.44,0.441,0.441,0.441,0.441,0.441,0.441,0.441,0.441,0.441,0.442,0.442,0.442,0.442,0.442,0.442,0.443,0.443,0.443,0.443,0.443,0.444,0.444,0.444,0.444,0.444,0.445,0.444,0.444,0.444,0.444,0.444,0.444,0.445,0.445,0.445,0.445,0.446,0.446,0.446,0.446,0.447,0.447,0.447,0.448,0.448,0.448,0.448,0.448,0.448,0.448,0.448,0.448,0.447,0.447,0.447,0.447,0.447,0.448,0.448,0.448,0.448,0.449,0.449,0.45,0.45,0.45,0.45,0.451,0.451,0.451,0.451,0.451,0.451,0.452,0.452,0.452,0.452,0.452,0.452,0.452,0.453,0.453,0.453,0.453,0.453,0.453,0.453,0.453,0.453,0.454,0.454,0.454,0.454,0.454,0.455,0.455,0.455,0.455,0.455,0.455,0.455,0.456,0.456,0.456,0.456,0.457,0.457,0.457,0.458,0.458,0.46,0.461,0.461,0.463,0.466,0.471,0.476,0,0.486,0.491,0.496,0.498,0.499,0.499,0.5,0.5,0.5,0.5,0.501,0.501,0.501,0.501,0.501,0.501,0.502,0.501,0.502,0.502,0.501,0.501,0.501,0.501,0.499,0.498,0.496,0.493,0.491,0.489,0.486,0.484,0.482,0.48,0.479,0.477,0.476,0.475,0.474,0.473,0.472,0.471,0.47,0.469,0.468,0.468,0.467,0.466,0.466,0.466,0.465,0.465,0.465,0.465,0.464,0.464,0.464,0.464,0.464,0.464,0.464,0.464,0.464,0.464,0.464,0.464,0.464,0.464,0.465,0.465,0.465,0.465,0.465,0.465,0.465,0.465,0.466,0.466,0.466,0.466,0.466,0.466,0.466,0.466,0.467,0.467,0.467,0.467,0.467,0.468,0.468,0.468,0.468,0.469,0.469,0.469,0.469,0.47,0.47,0.47,0.47,0.471,0.471,0.471,0.472,0.472,0.472,0.473,0.473,0.473,0.473,0.473,0.473,0.473,0.474,0.474,0.474,0.474,0.474,0.474,0.474,0.474,0.474,0.474,0.475,0.475,0.475,0.475,0.475,0.475,0.475,0.476,0.476,0.476,0.476,0.477,0.477,0.477,0.477,0.477,0.478,0.478,0.478,0.478,0.479,0.48,0.48,0.48,0.481,0.482,0.482,0.483,0.483,0.484,0.484,0.484,0.485,0.485,0.485,0.486,0.486,0.486,0.486,0.486,0.486,0.486,0.486,0.486,0.486,0.486,0.487,0.487,0.487,0.487,0.487,0.488,0.488,0.488,0.488,0.488,0.488,0.488,0.489,0.489,0.489,0.489,0.489,0.489,0.489,0.488,0.488,0.488,0.488,0.487,0.487,0.487,0.487,0.486,0.486,0.486,0.486,0.485,0.485,0.484,0.484,0.483,0.482,0.481,0.48,0.48,0.479,0.478,0.478,0.478,0.477,0.477,0.477,0.477,0.478,0.478
