0.762,0.762,0.763,0.762,0.762,0.762,0.762,0.763,0.762,0.762,0.762,0.761,0.761,0.761,0.761,0.76,0.76,0.76,0.761,0.762,0.762,0.763,0.763,0.763,0.764,0.765,0.765,0.765,0,0,0,0,0,0,0,0,0,0,0,0,0,0,0,0,0,0,0,0,0,0,0.465,0.465,0.466,0.466,0.466,0.466,0.466,0.466,0.466,0.467,0.467,0.467,0.468,0.468,0.468,0.468,0.468,0.469,0.469,0.469,0.469,0.469,0.47,0.47,0.471,0.471,0.471,0.471,0.471,0.471,0.472,0.472,0.472,0.472,0.473,0.473,0.473,0.473,0.474,0.474,0.474,0.474,0.474,0.474,0.474,0.474,0.474,0.474,0.475,0.475,0.475,0.475,0.475,0.475,0.475,0.475,0.475,0.475,0.475,0.475,0.475,0.474,0.473,0.471,0.467,0,0.459,0.454,0.45,0.447,0.446,0.444,0.442,0.441,0.44,0.439,0.438,0.437,0.436,0.435,0.435,0.435,0.435,0.435,0.435,0.436,0.437,0.437,0.437,0.437,0.438,0.438,0.438,0.439,0.439,0.439,0.439,0.439,0.439,0.439,0.439,0.439,0.439,0.439,0.439,0.439,0.439,0.439,0.44,0.44,0.44,0.441,0.44,0.441,0.441,0.441,0.441,0.442,0.442,0.442,0.443,0.443,0.444,0.445,0.445,0.445,0.446,0.446,0.446,0.446,0.446,0.446,0.446,0.446,0.446,0.447,0.447,0.447,0.448,0.448,0.448,0.448,0.449,0.449,0.448,0.448,0.449,0.449,0.449,0.449,0.449,0.45,0.45,0.45,0.45,0.45,0.45,0.45,0.45,0.451,0.451,0.451,0.451,0.452,0.452,0.452,0.452,0.453,0.453,0.453,0.453,0.453,0.453,0.453,0.454,0.454,0.454,0.454,0.455,0.454,0.455,0.455,0.455,0.455,0.455,0.455,0.456,0.456,0.457,0.457,0.457,0.457,0.457,0.457,0.458,0.458,0.458,0.458,0.458,0.459,0.459,0.459,0.46,0.46,0.46,0.46,0.46,0.46,0.46,0.46,0.461,0.461,0.461,0.462,0.462,0.462,0.463,0.463,0.463,0.463,0.464,0.464,0.464,0.464,0.464,0.465,0.465,0.465,0.466,0.466,0.466,0.467,0.467,0.468,0.468,0.469,0.47,0.47,0.47,0.47,0.471,0.471,0.471,0.471,0.471,0.471,0.471,0.471,0.471,0.471,0.471,0.471,0.471,0.471,0.472,0.472,0.472,0.473,0.473,0.473,0.473,0.473,0.474,0.474,0.474,0.474,0.475,0.475,0.475,0.475,0.476,0.476,0.476,0.477,0.477,0.477,0.477,0.478,0.478,0.478,0.478,0.478,0.478,0.478,0.478,0.478,0.478,0.478,0.478,0.478,0.478,0.478,0.478,0.479,0.479,0.48,0.48,0.481,0.481,0.481,0.481,0.482,0.483,0.483,0.484,0.484,0.485,0.486,0.486,0.486,0.486,0.486,0.486,0.486,0.486,0.486,0.486,0.486,0.486,0.486,0.487,0.487,0.487,0.488,0.488,0.488,0.488,0.488,0.489,0.489,0.489,0.489,0.49,0.49,0.49,0.49,0.491,0.491,0.491,0.491,0.491,0.491,0.492,0.492,0.492,0.492,0.493,0.493,0.493,0.494,0.494,0.495,0.495,0.495,0.495,0.496,0.496,0.496,0.496,0.496,0.496,0.496,0.497,0.497,0.498,0.499,0.5,0.501,0.502,0.503,0.504,0.504,0.505,0.505,0.505,0.505,0.505,0.505,0.505,0.504,0.504,0.504,0.503,0.503,0.503,0.502,0.502,0.502,0.501,0.501,0.501,0.501,0.501,0.501,0.501,0.501,0.501,0.5,0.5,0.5,0.5,0.5,0.501,0.501,0.501,0.501,0.501,0.501,0.501,0.502,0.502,0.502,0.502,0.502,0.502,0.503,0.503,0.503,0.503,0.503,0.503,0.504,0.504,0.504,0.504,0.505,0.505,0.505,0.505,0.505,0.506,0.506,0.506,0.506,0.506,0.506,0.507,0.507,0.507,0.507,0.507,0.507,0.507,0.507,0.507,0.507,0.507,0.507,0.507,0.508,0.508,0.508,0.509,0.509,0.509,0.509,0.509,0.51,0.51,0.51,0.511,0.511,0.512,0.513,0.513,0.514,0.514,0.515,0.515,0.516,0.516,0.517,0.517,0.517,0.518,0.518,0.518,0.518,0.518,0.518,0.518,0.518,0.518,0.518,0.518,0.518,0.518,0.519,0.519,0.519,0.519,0.519,0.52,0.52,0.52,0.52,0.521,0.521,0.521,0.521
0.761,0.761,0.761,0.761,0.761,0.761,0.761,0.761,0.761,0.761,0.761,0.76,0.76,0.76,0.759,0.759,0.759,0.76,0.76,0.761,0.762,0.762,0.763,0.763,0.764,0.765,0.766,0.766,0,0,0,0,0,0,0,0,0,0,0,0,0,0,0,0,0,0,0,0,0.464,0.464,0.464,0.464,0.464,0.464,0.465,0.464,0.465,0.465,0.465,0.465,0.466,0.466,0.466,0.466,0.467,0.467,0.467,0.468,0.468,0.468,0.468,0.468,0.469,0.469,0.47,0.47,0.47,0.47,0.47,0.471,0.471,0.471,0.471,0.471,0.471,0.472,0.472,0.472,0.473,0.473,0.473,0.473,0.473,0.473,0.473,0.473,0.473,0.473,0.474,0.474,0.474,0.474,0.474,0.474,0.474,0.474,0.474,0.474,0.474,0.474,0.474,0.473,0.473,0.47,0.468,0,0.46,0.456,0.452,0.449,0.447,0.445,0.443,0.441,0.44,0.439,0.438,0.436,0.435,0.435,0.434,0.434,0.434,0.434,0.435,0.435,0.436,0.436,0.436,0.437,0.437,0.437,0.437,0.438,0.437,0.438,0.437,0.438,0.438,0.438,0.438,0.438,0.438,0.438,0.438,0.438,0.438,0.438,0.439,0.439,0.439,0.439,0.439,0.439,0.439,0.44,0.44,0.44,0.441,0.441,0.442,0.442,0.443,0.443,0.443,0.444,0.444,0.444,0.444,0.445,0.445,0.445,0.445,0.445,0.446,0.445,0.446,0.446,0.446,0.446,0.447,0.447,0.447,0.447,0.447,0.447,0.447,0.447,0.447,0.448,0.448,0.448,0.448,0.449,0.449,0.449,0.449,0.449,0.449,0.45,0.45,0.45,0.45,0.451,0.451,0.451,0.452,0.452,0.452,0.452,0.452,0.452,0.452,0.453,0.453,0.453,0.453,0.454,0.454,0.454,0.454,0.454,0.454,0.454,0.454,0.455,0.455,0.455,0.456,0.456,0.456,0.456,0.456,0.457,0.457,0.457,0.457,0.457,0.457,0.458,0.458,0.458,0.458,0.458,0.458,0.459,0.459,0.459,0.459,0.459,0.46,0.46,0.461,0.461,0.461,0.462,0.462,0.462,0.462,0.463,0.463,0.463,0.463,0.463,0.463,0.464,0.464,0.464,0.464,0.465,0.465,0.465,0.466,0.466,0.467,0.468,0.468,0.469,0.469,0.469,0.469,0.47,0.47,0.47,0.47,0.47,0.47,0.47,0.47,0.47,0.47,0.47,0.47,0.47,0.47,0.471,0.471,0.471,0.472,0.472,0.472,0.472,0.473,0.473,0.473,0.473,0.474,0.474,0.475,0.475,0.475,0.475,0.475,0.475,0.475,0.476,0.476,0.476,0.477,0.477,0.477,0.477,0.477,0.477,0.477,0.477,0.477,0.477,0.477,0.477,0.477,0.478,0.477,0.478,0.478,0.479,0.479,0.48,0.48,0.48,0.48,0.481,0.481,0.482,0.482,0.483,0.483,0.484,0.485,0.485,0.485,0.485,0.485,0.485,0.485,0.485,0.485,0.485,0.485,0.485,0.486,0.486,0.486,0.486,0.487,0.487,0.487,0.488,0.488,0.488,0.488,0.488,0.488,0.489,0.489,0.489,0.49,0.49,0.49,0.49,0.49,0.49,0.491,0.491,0.491,0.491,0.491,0.492,0.492,0.493,0.493,0.493,0.494,0.495,0.494,0.495,0.495,0.495,0.495,0.495,0.495,0.495,0.495,0.496,0.497,0.497,0.499,0.499,0.5,0.501,0.502,0.503,0.504,0.504,0.504,0.504,0.504,0.504,0.504,0.503,0.503,0.502,0.502,0.501,0.501,0.501,0.501,0.5,0.5,0.5,0.5,0.499,0.499,0.499,0.499,0.499,0.499,0.499,0.499,0.499,0.499,0.499,0.499,0.499,0.499,0.499,0.5,0.5,0.5,0.5,0.501,0.501,0.501,0.501,0.501,0.501,0.501,0.501,0.502,0.502,0.502,0.502,0.502,0.503,0.503,0.503,0.504,0.504,0.504,0.504,0.504,0.504,0.504,0.505,0.505,0.505,0.505,0.505,0.505,0.506,0.506,0.506,0.506,0.506,0.506,0.506,0.506,0.506,0.506,0.506,0.506,0.506,0.507,0.507,0.507,0.508,0.508,0.508,0.509,0.509,0.509,0.51,0.51,0.511,0.511,0.512,0.512,0.513,0.514,0.514,0.514,0.515,0.515,0.515,0.516,0.516,0.516,0.517,0.517,0.517,0.517,0.517,0.517,0.517,0.517,0.517,0.517,0.517,0.517,0.518,0.518,0.518,0.518,0.518,0.518,0.519,0.519,0.519,0.519,0.52
0.759,0.759,0.76,0.76,0.76,0.76,0.76,0.76,0.76,0.76,0.76,0.759,0.759,0.759,0.759,0.759,0.759,0.76,0.76,0.761,0.761,0.762,0.762,0.763,0.764,0.765,0,0,0,0,0,0,0,0,0,0,0,0,0,0,0,0,0,0,0,0,0,0,0.462,0.462,0.463,0.463,0.463,0.463,0.463,0.463,0.463,0.464,0.464,0.464,0.464,0.465,0.465,0.465,0.466,0.466,0.466,0.466,0.466,0.467,0.467,0.467,0.468,0.468,0.468,0.469,0.469,0.469,0.469,0.47,0.47,0.47,0.47,0.47,0.47,0.47,0.471,0.471,0.471,0.471,0.471,0.471,0.472,0.472,0.472,0.472,0.472,0.472,0.472,0.473,0.473,0.473,0.473,0.473,0.473,0.473,0.473,0.473,0.473,0.473,0.473,0.473,0.471,0.47,0.468,0.465,0,0.458,0.454,0.451,0.448,0.446,0.443,0.44,0.439,0.438,0.437,0.435,0.434,0.434,0.434,0.434,0.434,0.434,0.434,0.434,0.435,0.435,0.435,0.435,0.436,0.436,0.436,0.436,0.436,0.436,0.436,0.436,0.437,0.437,0.437,0.437,0.437,0.437,0.437,0.437,0.437,0.437,0.437,0.438,0.438,0.438,0.438,0.438,0.439,0.439,0.439,0.439,0.44,0.44,0.441,0.441,0.442,0.442,0.442,0.442,0.443,0.443,0.443,0.443,0.443,0.443,0.443,0.443,0.444,0.444,0.444,0.444,0.445,0.445,0.445,0.445,0.446,0.446,0.446,0.446,0.446,0.446,0.446,0.446,0.447,0.447,0.447,0.448,0.448,0.448,0.448,0.448,0.448,0.448,0.449,0.449,0.449,0.45,0.45,0.45,0.45,0.451,0.451,0.451,0.451,0.451,0.452,0.452,0.452,0.452,0.453,0.453,0.453,0.453,0.453,0.453,0.453,0.453,0.453,0.454,0.454,0.454,0.455,0.455,0.455,0.455,0.455,0.456,0.456,0.456,0.456,0.456,0.456,0.457,0.457,0.457,0.457,0.457,0.457,0.458,0.458,0.458,0.458,0.458,0.459,0.459,0.46,0.46,0.46,0.461,0.461,0.462,0.462,0.462,0.462,0.462,0.462,0.462,0.462,0.462,0.462,0.462,0.463,0.463,0.464,0.464,0.464,0.465,0.465,0.466,0.466,0.467,0.468,0.468,0.468,0.468,0.468,0.468,0.468,0.468,0.468,0.468,0.469,0.469,0.469,0.469,0.469,0.469,0.47,0.47,0.47,0.47,0.47,0.471,0.471,0.471,0.471,0.472,0.472,0.473,0.473,0.473,0.474,0.474,0.474,0.474,0.474,0.475,0.475,0.475,0.475,0.475,0.475,0.475,0.475,0.475,0.476,0.476,0.476,0.476,0.476,0.476,0.476,0.476,0.477,0.477,0.477,0.477,0.477,0.478,0.478,0.478,0.478,0.479,0.479,0.48,0.48,0.481,0.481,0.482,0.482,0.483,0.483,0.484,0.484,0.484,0.484,0.484,0.484,0.484,0.484,0.484,0.484,0.484,0.484,0.484,0.485,0.485,0.486,0.486,0.486,0.486,0.487,0.487,0.487,0.487,0.488,0.488,0.488,0.488,0.488,0.488,0.488,0.489,0.489,0.489,0.489,0.49,0.49,0.49,0.49,0.491,0.491,0.491,0.492,0.492,0.493,0.493,0.493,0.493,0.493,0.493,0.493,0.493,0.494,0.494,0.494,0.495,0.495,0.496,0.497,0.498,0.499,0.499,0.5,0.501,0.501,0.501,0.502,0.502,0.502,0.502,0.502,0.501,0.501,0.501,0.5,0.5,0.5,0.499,0.499,0.499,0.499,0.499,0.498,0.498,0.498,0.498,0.498,0.497,0.497,0.497,0.497,0.497,0.497,0.497,0.497,0.497,0.498,0.498,0.498,0.498,0.499,0.499,0.499,0.499,0.499,0.5,0.5,0.5,0.5,0.5,0.5,0.501,0.501,0.501,0.501,0.501,0.501,0.502,0.502,0.502,0.502,0.503,0.503,0.503,0.503,0.503,0.503,0.504,0.504,0.504,0.504,0.504,0.504,0.504,0.504,0.504,0.504,0.504,0.504,0.504,0.504,0.505,0.505,0.505,0.505,0.506,0.506,0.506,0.506,0.507,0.507,0.508,0.508,0.509,0.509,0.509,0.51,0.51,0.511,0.511,0.511,0.512,0.512,0.513,0.513,0.514,0.514,0.514,0.515,0.515,0.515,0.515,0.515,0.515,0.515,0.516,0.515,0.515,0.515,0.515,0.516,0.516,0.516,0.516,0.517,0.517,0.517,0.517,0.518,0.518,0.518,0.518
0.757,0.757,0.757,0.757,0.757,0.758,0.758,0.758,0.758,0.759,0.759,0.759,0.759,0.759,0.759,0.759,0.759,0.759,0.76,0.761,0.761,0.761,0.762,0.763,0.764,0.764,0,0,0,0,0,0,0,0,0,0,0,0,0,0,0,0,0,0,0,0,0,0.461,0.461,0.461,0.461,0.462,0.462,0.462,0.462,0.462,0.462,0.463,0.463,0.463,0.463,0.464,0.464,0.464,0.465,0.465,0.465,0.465,0.466,0.466,0.466,0.466,0.466,0.467,0.467,0.468,0.468,0.468,0.468,0.468,0.469,0.469,0.469,0.469,0.469,0.469,0.47,0.47,0.47,0.47,0.47,0.47,0.471,0.471,0.471,0.471,0.471,0.471,0.471,0.471,0.472,0.472,0.472,0.471,0.472,0.472,0.472,0.472,0.472,0.472,0.472,0.471,0.471,0.469,0.468,0.466,0.463,0.46,0.456,0.453,0.45,0.446,0.443,0.44,0.439,0.438,0.436,0.435,0.434,0.433,0.433,0.433,0.433,0.433,0.433,0.434,0.434,0.434,0.434,0.434,0.435,0.435,0.435,0.435,0.435,0.435,0.435,0.436,0.435,0.435,0.435,0.435,0.435,0.435,0.435,0.436,0.436,0.436,0.436,0.436,0.437,0.437,0.437,0.437,0.437,0.438,0.438,0.438,0.439,0.439,0.439,0.44,0.441,0.441,0.441,0.441,0.441,0.441,0.441,0.441,0.441,0.442,0.442,0.442,0.442,0.442,0.442,0.443,0.443,0.443,0.443,0.444,0.444,0.444,0.444,0.444,0.445,0.445,0.445,0.445,0.446,0.446,0.446,0.446,0.446,0.446,0.447,0.447,0.447,0.448,0.448,0.448,0.448,0.449,0.449,0.449,0.449,0.449,0.45,0.45,0.45,0.451,0.451,0.451,0.451,0.452,0.452,0.452,0.452,0.452,0.452,0.452,0.452,0.452,0.452,0.453,0.453,0.453,0.454,0.454,0.454,0.454,0.454,0.455,0.455,0.455,0.455,0.455,0.456,0.456,0.456,0.457,0.457,0.457,0.457,0.457,0.457,0.457,0.457,0.458,0.458,0.458,0.459,0.459,0.46,0.46,0.46,0.461,0.461,0.461,0.461,0.461,0.46,0.46,0.46,0.461,0.461,0.461,0.461,0.462,0.462,0.463,0.463,0.463,0.464,0.464,0.465,0.465,0.466,0.466,0.466,0.466,0.466,0.467,0.467,0.467,0.467,0.467,0.467,0.468,0.468,0.468,0.468,0.468,0.468,0.469,0.469,0.469,0.469,0.469,0.47,0.47,0.47,0.47,0.471,0.471,0.472,0.472,0.473,0.473,0.473,0.473,0.474,0.473,0.474,0.474,0.474,0.474,0.474,0.474,0.474,0.474,0.474,0.474,0.475,0.475,0.475,0.475,0.475,0.475,0.476,0.476,0.476,0.476,0.477,0.477,0.477,0.477,0.478,0.478,0.478,0.479,0.479,0.48,0.48,0.48,0.481,0.481,0.482,0.482,0.482,0.482,0.482,0.483,0.483,0.483,0.483,0.483,0.483,0.483,0.483,0.483,0.484,0.484,0.484,0.485,0.485,0.486,0.486,0.486,0.486,0.486,0.486,0.487,0.487,0.487,0.487,0.487,0.487,0.487,0.488,0.488,0.488,0.488,0.488,0.488,0.489,0.49,0.49,0.49,0.49,0.491,0.491,0.492,0.492,0.492,0.492,0.492,0.492,0.492,0.492,0.493,0.493,0.493,0.493,0.494,0.495,0.496,0.497,0.497,0.498,0.499,0.5,0.5,0.5,0.5,0.5,0.5,0.5,0.5,0.5,0.499,0.499,0.499,0.498,0.498,0.498,0.497,0.497,0.497,0.497,0.497,0.497,0.496,0.496,0.496,0.496,0.496,0.496,0.496,0.496,0.496,0.496,0.496,0.496,0.496,0.496,0.497,0.497,0.497,0.497,0.498,0.498,0.498,0.499,0.499,0.499,0.499,0.499,0.499,0.499,0.499,0.499,0.5,0.5,0.5,0.501,0.501,0.501,0.501,0.501,0.501,0.501,0.501,0.501,0.502,0.502,0.502,0.502,0.502,0.502,0.503,0.503,0.503,0.503,0.503,0.503,0.503,0.503,0.503,0.503,0.504,0.504,0.504,0.504,0.504,0.505,0.505,0.506,0.506,0.506,0.507,0.507,0.508,0.508,0.509,0.509,0.51,0.51,0.511,0.511,0.511,0.512,0.512,0.512,0.513,0.513,0.513,0.514,0.514,0.514,0.514,0.514,0.514,0.514,0.514,0.514,0.514,0.514,0.514,0.515,0.515,0.515,0.515,0.516,0.516,0.516,0.516,0.516,0.517
0.756,0.756,0.756,0.757,0.757,0.757,0.757,0.758,0.758,0.758,0.758,0.758,0.759,0.759,0.759,0.759,0.759,0.759,0.76,0.762,0.761,0.761,0.762,0.763,0.763,0,0,0,0,0,0,0,0,0,0,0,0,0,0,0,0,0,0,0,0,0,0.46,0.46,0.46,0.46,0.46,0.46,0.46,0.461,0.461,0.461,0.461,0.462,0.462,0.462,0.462,0.463,0.463,0.463,0.463,0.464,0.464,0.464,0.464,0.464,0.465,0.465,0.465,0.466,0.466,0.466,0.466,0.466,0.467,0.468,0.468,0.468,0.468,0.468,0.468,0.469,0.469,0.469,0.469,0.469,0.469,0.469,0.47,0.47,0.47,0.47,0.47,0.47,0.47,0.47,0.471,0.471,0.471,0.471,0.471,0.471,0.471,0.471,0.471,0.471,0.471,0.471,0.47,0.47,0.468,0.467,0.464,0.462,0.458,0.455,0.452,0.448,0.444,0.44,0.438,0.436,0.435,0.434,0.433,0.432,0.432,0.432,0.432,0.432,0.432,0.432,0.433,0.433,0.433,0.434,0.434,0.434,0.434,0.434,0.434,0.434,0.434,0.434,0.434,0.434,0.434,0.434,0.434,0.434,0.434,0.434,0.434,0.434,0.435,0.435,0.435,0.435,0.435,0.436,0.436,0.437,0.437,0.437,0.438,0.438,0.439,0.439,0.439,0.439,0.439,0.439,0.44,0.44,0.44,0.44,0.44,0.44,0.44,0.44,0.441,0.441,0.441,0.441,0.441,0.441,0.442,0.442,0.442,0.442,0.442,0.443,0.443,0.443,0.443,0.444,0.444,0.445,0.445,0.445,0.445,0.446,0.446,0.446,0.446,0.447,0.447,0.447,0.447,0.447,0.448,0.448,0.448,0.448,0.449,0.449,0.449,0.45,0.45,0.45,0.451,0.451,0.451,0.451,0.451,0.451,0.451,0.451,0.451,0.451,0.451,0.452,0.452,0.452,0.452,0.453,0.453,0.453,0.453,0.453,0.454,0.454,0.454,0.454,0.455,0.455,0.455,0.456,0.456,0.456,0.456,0.456,0.456,0.457,0.457,0.457,0.457,0.458,0.458,0.458,0.459,0.459,0.46,0.459,0.46,0.46,0.46,0.459,0.459,0.459,0.459,0.459,0.459,0.46,0.46,0.46,0.461,0.461,0.462,0.462,0.462,0.463,0.463,0.464,0.464,0.464,0.464,0.465,0.465,0.465,0.465,0.465,0.465,0.466,0.466,0.466,0.466,0.466,0.467,0.467,0.467,0.467,0.468,0.468,0.468,0.468,0.468,0.469,0.469,0.469,0.47,0.47,0.47,0.471,0.471,0.471,0.471,0.472,0.472,0.472,0.472,0.472,0.472,0.473,0.473,0.473,0.473,0.473,0.473,0.473,0.474,0.474,0.474,0.474,0.474,0.475,0.475,0.475,0.475,0.476,0.476,0.476,0.476,0.477,0.477,0.477,0.477,0.478,0.478,0.478,0.479,0.479,0.48,0.48,0.48,0.481,0.481,0.481,0.481,0.481,0.481,0.482,0.481,0.481,0.482,0.482,0.482,0.482,0.483,0.483,0.483,0.484,0.484,0.484,0.485,0.485,0.486,0.486,0.486,0.486,0.486,0.486,0.486,0.486,0.486,0.486,0.486,0.486,0.486,0.487,0.487,0.487,0.488,0.488,0.489,0.489,0.489,0.49,0.49,0.491,0.491,0.491,0.491,0.491,0.491,0.491,0.491,0.491,0.491,0.492,0.492,0.493,0.493,0.494,0.495,0.495,0.497,0.497,0.498,0.498,0.499,0.499,0.499,0.499,0.499,0.499,0.498,0.498,0.497,0.497,0.497,0.496,0.496,0.496,0.495,0.495,0.495,0.495,0.495,0.495,0.495,0.494,0.494,0.494,0.494,0.494,0.494,0.494,0.494,0.494,0.494,0.495,0.495,0.495,0.495,0.495,0.496,0.496,0.497,0.497,0.497,0.497,0.497,0.497,0.497,0.497,0.498,0.498,0.498,0.498,0.498,0.499,0.499,0.499,0.499,0.499,0.5,0.5,0.5,0.5,0.5,0.5,0.5,0.501,0.501,0.501,0.501,0.501,0.501,0.501,0.501,0.501,0.501,0.501,0.501,0.501,0.502,0.502,0.502,0.502,0.503,0.503,0.503,0.504,0.504,0.504,0.505,0.505,0.506,0.506,0.507,0.507,0.508,0.508,0.509,0.509,0.509,0.51,0.51,0.511,0.511,0.511,0.511,0.512,0.512,0.512,0.513,0.513,0.513,0.513,0.513,0.513,0.513,0.513,0.513,0.514,0.514,0.514,0.514,0.514,0.514,0.514,0.514,0.514,0.515,0.515
0.754,0.755,0.755,0.755,0.755,0.756,0.756,0.757,0.758,0.758,0.758,0.759,0.759,0.759,0.759,0.76,0.759,0.76,0.76,0.762,0.761,0.762,0.762,0.762,0.762,0,0,0,0,0,0,0,0,0,0,0,0,0,0,0,0,0,0,0,0,0,0.46,0.46,0.46,0.459,0.46,0.459,0.46,0.46,0.46,0.46,0.46,0.46,0.461,0.461,0.461,0.462,0.462,0.462,0.462,0.463,0.463,0.463,0.463,0.463,0.464,0.464,0.464,0.465,0.465,0.465,0.465,0.466,0.466,0.466,0.466,0.467,0.467,0.467,0.467,0.468,0.468,0.468,0.468,0.468,0.468,0.468,0.469,0.469,0.469,0.469,0.469,0.469,0.469,0.47,0.47,0.47,0.47,0.47,0.47,0.47,0.47,0.47,0.47,0.47,0.47,0.47,0.47,0.469,0.469,0.468,0.466,0.464,0.461,0.458,0.455,0.45,0.445,0.439,0.437,0.436,0.434,0.433,0.432,0.432,0.431,0.431,0.431,0.431,0.431,0.431,0.432,0.432,0.432,0.432,0.432,0.433,0.433,0.433,0.433,0.433,0.433,0.433,0.433,0.433,0.433,0.433,0.433,0.433,0.433,0.433,0.433,0.433,0.434,0.434,0.434,0.434,0.434,0.435,0.435,0.436,0.436,0.436,0.436,0.437,0.437,0.438,0.438,0.438,0.438,0.439,0.439,0.439,0.439,0.439,0.439,0.439,0.439,0.439,0.439,0.439,0.439,0.439,0.44,0.44,0.44,0.44,0.44,0.44,0.441,0.441,0.441,0.441,0.442,0.442,0.443,0.443,0.444,0.444,0.444,0.444,0.445,0.445,0.446,0.446,0.446,0.446,0.446,0.446,0.446,0.447,0.447,0.447,0.448,0.448,0.449,0.449,0.449,0.45,0.45,0.45,0.45,0.45,0.45,0.45,0.45,0.45,0.45,0.45,0.451,0.451,0.451,0.451,0.452,0.452,0.452,0.452,0.453,0.452,0.453,0.453,0.453,0.454,0.454,0.454,0.455,0.455,0.455,0.455,0.455,0.455,0.456,0.456,0.456,0.456,0.456,0.457,0.457,0.457,0.458,0.458,0.458,0.458,0.458,0.458,0.458,0.458,0.458,0.458,0.458,0.458,0.458,0.458,0.459,0.459,0.46,0.46,0.46,0.46,0.461,0.461,0.461,0.462,0.462,0.462,0.463,0.463,0.463,0.463,0.463,0.464,0.464,0.464,0.464,0.465,0.465,0.465,0.465,0.465,0.466,0.466,0.466,0.466,0.466,0.466,0.467,0.467,0.467,0.468,0.468,0.469,0.469,0.47,0.47,0.47,0.47,0.471,0.471,0.471,0.471,0.471,0.471,0.471,0.471,0.472,0.472,0.472,0.472,0.472,0.473,0.473,0.473,0.474,0.474,0.474,0.475,0.475,0.475,0.475,0.475,0.475,0.476,0.476,0.476,0.476,0.477,0.477,0.477,0.477,0.478,0.478,0.478,0.479,0.479,0.48,0.48,0.48,0.48,0.48,0.48,0.48,0.481,0.48,0.481,0.481,0.481,0.481,0.481,0.481,0.482,0.482,0.483,0.483,0.484,0.484,0.484,0.484,0.484,0.485,0.485,0.485,0.485,0.485,0.484,0.484,0.485,0.486,0.486,0.486,0.486,0.486,0.487,0.487,0.488,0.488,0.488,0.489,0.489,0.489,0.49,0.49,0.49,0.49,0.49,0.49,0.49,0.49,0.49,0.49,0.491,0.491,0.492,0.493,0.493,0.494,0.495,0.496,0.496,0.497,0.497,0.497,0.497,0.497,0.497,0.497,0.497,0.496,0.496,0.495,0.495,0.495,0.495,0.494,0.494,0.494,0.493,0.493,0.493,0.493,0.493,0.493,0.493,0.493,0.493,0.493,0.493,0.493,0.493,0.493,0.493,0.493,0.493,0.493,0.493,0.494,0.494,0.494,0.495,0.495,0.495,0.495,0.495,0.495,0.495,0.496,0.496,0.496,0.496,0.497,0.497,0.497,0.497,0.498,0.498,0.498,0.498,0.498,0.498,0.499,0.498,0.499,0.499,0.499,0.499,0.499,0.499,0.499,0.499,0.5,0.5,0.5,0.5,0.5,0.5,0.5,0.5,0.5,0.5,0.501,0.501,0.501,0.501,0.502,0.502,0.503,0.503,0.504,0.504,0.505,0.505,0.506,0.506,0.506,0.507,0.508,0.508,0.509,0.509,0.509,0.51,0.51,0.51,0.511,0.511,0.511,0.511,0.511,0.511,0.512,0.512,0.512,0.512,0.512,0.512,0.512,0.512,0.512,0.512,0.513,0.513,0.513,0.513,0.513,0.513,0.513
0.753,0.754,0.754,0.754,0.755,0.755,0.756,0.756,0.757,0.758,0.758,0.758,0.759,0.759,0.76,0.76,0.76,0.76,0.761,0.762,0.762,0.762,0.762,0.762,0.762,0.763,0.763,0.762,0,0,0,0,0,0,0,0,0,0,0,0,0,0,0,0,0,0.458,0.458,0.458,0.458,0.458,0.458,0.458,0.458,0.458,0.459,0.459,0.459,0.459,0.46,0.46,0.46,0.461,0.461,0.461,0.461,0.461,0.461,0.462,0.462,0.462,0.462,0.463,0.463,0.463,0.464,0.464,0.464,0.464,0.465,0.465,0.465,0.466,0.466,0.466,0.466,0.466,0.467,0.467,0.467,0.467,0.467,0.467,0.468,0.468,0.468,0.468,0.468,0.468,0.468,0.469,0.469,0.469,0.469,0.469,0.469,0.469,0.469,0.469,0.469,0.469,0.469,0.47,0.47,0.47,0.469,0.469,0.468,0.466,0.464,0,0,0,0,0,0,0,0.434,0.433,0.431,0.431,0.43,0.429,0.43,0.43,0.43,0.43,0.43,0.431,0.431,0.431,0.431,0.431,0.432,0.432,0.432,0.432,0.432,0.432,0.432,0.432,0.432,0.432,0.432,0.432,0.432,0.432,0.432,0.432,0.433,0.433,0.433,0.433,0.434,0.434,0.434,0.434,0.435,0.435,0.435,0.435,0.436,0.436,0.436,0.437,0.437,0.437,0.437,0.437,0.437,0.438,0.438,0.438,0.438,0.438,0.438,0.438,0.438,0.439,0.439,0.439,0.439,0.439,0.439,0.439,0.439,0.439,0.44,0.44,0.44,0.441,0.441,0.441,0.442,0.442,0.442,0.443,0.443,0.444,0.444,0.444,0.444,0.445,0.445,0.445,0.446,0.446,0.446,0.446,0.446,0.447,0.447,0.448,0.448,0.449,0.449,0.449,0.449,0.449,0.449,0.449,0.449,0.449,0.449,0.449,0.449,0.45,0.45,0.45,0.45,0.45,0.451,0.451,0.451,0.451,0.451,0.452,0.452,0.453,0.453,0.454,0.454,0.454,0.454,0.454,0.454,0.455,0.455,0.455,0.455,0.455,0.455,0.456,0.456,0.456,0.457,0.457,0.457,0.457,0.457,0.457,0.457,0.457,0.457,0.457,0.457,0.457,0.457,0.457,0.457,0.458,0.458,0.458,0.458,0.459,0.459,0.46,0.46,0.46,0.46,0.461,0.461,0.461,0.461,0.461,0.462,0.462,0.462,0.463,0.463,0.463,0.463,0.464,0.464,0.464,0.464,0.464,0.464,0.465,0.465,0.465,0.465,0.466,0.466,0.466,0.466,0.467,0.468,0.468,0.469,0.469,0.469,0.469,0.47,0.47,0.47,0.47,0.47,0.47,0.47,0.47,0.471,0.47,0.471,0.471,0.471,0.472,0.472,0.473,0.473,0.473,0.474,0.474,0.474,0.474,0.474,0.474,0.474,0.475,0.475,0.475,0.475,0.475,0.475,0.476,0.476,0.476,0.477,0.477,0.477,0.478,0.478,0.478,0.478,0.478,0.479,0.479,0.479,0.479,0.479,0.479,0.48,0.48,0.48,0.48,0.481,0.481,0.481,0.481,0.482,0.482,0.483,0.483,0.483,0.483,0.484,0.483,0.484,0.484,0.484,0.484,0.484,0.484,0.484,0.485,0.485,0.485,0.486,0.486,0.486,0.486,0.487,0.487,0.488,0.488,0.488,0.488,0.488,0.488,0.488,0.488,0.489,0.488,0.489,0.489,0.49,0.49,0.491,0.491,0.492,0.493,0.494,0.494,0.495,0.495,0.495,0.495,0.495,0.495,0.495,0.495,0.495,0.495,0.494,0.494,0.493,0.493,0.493,0.493,0.493,0.492,0.492,0.492,0.492,0.492,0.491,0.491,0.491,0.491,0.491,0.491,0.491,0.491,0.491,0.491,0.491,0.491,0.491,0.491,0.492,0.492,0.492,0.493,0.493,0.493,0.493,0.493,0.494,0.494,0.494,0.494,0.494,0.495,0.495,0.495,0.495,0.496,0.496,0.496,0.496,0.496,0.497,0.497,0.497,0.497,0.497,0.497,0.497,0.497,0.498,0.498,0.498,0.498,0.498,0.498,0.498,0.499,0.499,0.499,0.499,0.499,0.499,0.499,0.499,0.499,0.499,0.499,0.5,0.5,0.501,0.501,0.502,0.502,0.503,0.503,0.504,0.504,0.505,0.505,0.506,0.506,0.506,0.507,0.507,0.508,0.508,0.509,0.509,0.509,0.51,0.51,0.51,0.51,0.511,0.511,0.511,0.511,0.511,0.511,0.511,0.511,0.511,0.511,0.511,0.511,0.511,0.511,0.511,0.511,0.511,0.512
0.753,0.753,0.753,0.753,0.754,0.754,0.755,0.756,0.757,0.758,0.758,0.759,0.76,0.76,0.76,0.761,0.76,0.761,0.761,0.763,0.762,0.762,0.762,0.762,0.762,0.763,0.762,0,0,0,0,0,0,0,0,0,0,0,0,0,0,0,0,0,0.458,0.458,0.457,0.457,0.457,0.457,0.457,0.457,0.457,0.457,0.457,0.458,0.458,0.458,0.458,0.459,0.459,0.46,0.46,0.46,0.46,0.46,0.46,0.46,0.46,0.461,0.461,0.461,0.461,0.462,0.462,0.463,0.463,0.463,0.464,0.464,0.465,0.465,0.465,0.465,0.466,0.465,0.466,0.466,0.466,0.466,0.466,0.466,0.466,0.467,0.467,0.467,0.467,0.467,0.467,0.468,0.468,0.468,0.468,0.468,0.468,0.468,0.468,0.468,0.468,0.468,0.469,0.469,0.469,0.469,0.469,0.469,0.468,0.467,0.465,0,0,0,0,0,0,0.434,0.433,0.431,0.43,0.43,0.429,0.428,0.428,0.428,0.429,0.429,0.429,0.429,0.43,0.43,0.43,0.43,0.431,0.431,0.431,0.431,0.431,0.431,0.431,0.431,0.431,0.431,0.431,0.431,0.431,0.431,0.431,0.431,0.432,0.432,0.432,0.432,0.433,0.433,0.433,0.433,0.434,0.434,0.434,0.434,0.434,0.434,0.435,0.435,0.435,0.436,0.436,0.436,0.436,0.436,0.436,0.436,0.436,0.437,0.436,0.437,0.437,0.437,0.437,0.437,0.437,0.437,0.438,0.438,0.438,0.438,0.438,0.438,0.439,0.439,0.439,0.44,0.44,0.44,0.441,0.441,0.442,0.442,0.443,0.443,0.443,0.443,0.444,0.444,0.444,0.444,0.445,0.445,0.446,0.446,0.446,0.447,0.447,0.448,0.448,0.448,0.448,0.448,0.448,0.448,0.448,0.448,0.448,0.448,0.448,0.448,0.449,0.449,0.449,0.449,0.449,0.45,0.45,0.45,0.45,0.451,0.451,0.452,0.452,0.452,0.453,0.453,0.453,0.453,0.453,0.453,0.454,0.454,0.454,0.454,0.454,0.454,0.455,0.455,0.455,0.455,0.456,0.456,0.456,0.456,0.456,0.456,0.456,0.455,0.455,0.455,0.456,0.456,0.456,0.456,0.457,0.457,0.457,0.457,0.457,0.458,0.458,0.458,0.458,0.458,0.459,0.459,0.459,0.46,0.46,0.46,0.461,0.461,0.461,0.462,0.462,0.462,0.462,0.463,0.463,0.463,0.463,0.463,0.463,0.464,0.464,0.464,0.464,0.464,0.465,0.466,0.466,0.466,0.467,0.467,0.468,0.468,0.468,0.468,0.468,0.468,0.469,0.469,0.469,0.469,0.469,0.469,0.469,0.47,0.47,0.471,0.471,0.471,0.472,0.472,0.473,0.473,0.473,0.473,0.474,0.474,0.474,0.474,0.474,0.474,0.474,0.474,0.475,0.475,0.475,0.475,0.475,0.475,0.475,0.476,0.476,0.477,0.477,0.477,0.477,0.478,0.478,0.478,0.478,0.478,0.478,0.478,0.479,0.479,0.479,0.479,0.48,0.48,0.481,0.481,0.481,0.481,0.482,0.482,0.483,0.483,0.483,0.482,0.483,0.483,0.483,0.483,0.483,0.484,0.484,0.484,0.484,0.485,0.485,0.486,0.486,0.486,0.487,0.487,0.487,0.487,0.487,0.487,0.487,0.487,0.487,0.487,0.487,0.488,0.488,0.488,0.489,0.49,0.491,0.491,0.492,0.493,0.493,0.494,0.494,0.494,0.494,0.494,0.494,0.493,0.493,0.493,0.493,0.492,0.491,0.491,0.491,0.491,0.491,0.491,0.491,0.49,0.49,0.49,0.49,0.49,0.49,0.49,0.49,0.49,0.49,0.49,0.49,0.49,0.49,0.49,0.49,0.49,0.49,0.49,0.491,0.491,0.491,0.491,0.492,0.492,0.492,0.492,0.492,0.493,0.493,0.493,0.493,0.493,0.494,0.494,0.494,0.495,0.495,0.495,0.495,0.495,0.495,0.495,0.495,0.495,0.496,0.496,0.496,0.497,0.497,0.497,0.497,0.497,0.497,0.497,0.497,0.497,0.497,0.497,0.497,0.497,0.497,0.498,0.498,0.498,0.498,0.499,0.499,0.5,0.5,0.501,0.501,0.502,0.502,0.503,0.504,0.504,0.504,0.505,0.505,0.506,0.506,0.506,0.507,0.507,0.508,0.508,0.508,0.509,0.509,0.509,0.509,0.509,0.509,0.509,0.509,0.509,0.509,0.509,0.51,0.51,0.51,0.51,0.51,0.51,0.51,0.51,0.51,0.51
0.752,0.753,0.753,0.753,0.753,0.754,0.755,0.756,0.757,0.758,0.758,0.759,0.76,0.761,0.762,0.762,0.762,0.762,0.763,0.763,0.763,0.762,0.762,0.762,0.762,0.762,0.762,0,0,0,0,0,0,0,0,0,0,0,0,0,0,0,0,0,0.457,0.457,0.457,0.457,0.457,0.457,0.456,0.456,0.456,0.456,0.457,0.457,0.457,0.457,0.458,0.458,0.458,0.458,0.458,0.459,0.459,0.459,0.459,0.459,0.459,0.459,0.46,0.46,0.46,0.461,0.461,0.462,0.462,0.462,0.463,0.463,0.464,0.464,0.464,0.464,0.464,0.465,0.465,0.465,0.465,0.465,0.465,0.465,0.465,0.466,0.466,0.466,0.466,0.466,0.466,0.466,0.466,0.466,0.466,0.466,0.466,0.467,0.467,0.467,0.467,0.468,0.468,0.468,0.468,0.468,0.469,0.468,0.468,0.468,0.466,0,0,0,0,0,0,0.432,0.431,0.43,0.429,0.429,0.428,0.428,0.427,0.428,0.428,0.428,0.428,0.428,0.428,0.428,0.429,0.429,0.429,0.429,0.429,0.429,0.429,0.43,0.43,0.43,0.43,0.43,0.43,0.43,0.43,0.43,0.43,0.43,0.431,0.431,0.431,0.431,0.431,0.431,0.432,0.432,0.432,0.432,0.433,0.433,0.433,0.433,0.434,0.434,0.434,0.434,0.434,0.435,0.435,0.435,0.435,0.435,0.435,0.435,0.435,0.435,0.436,0.436,0.436,0.436,0.436,0.436,0.436,0.436,0.436,0.437,0.437,0.437,0.437,0.438,0.438,0.439,0.439,0.439,0.439,0.44,0.44,0.441,0.442,0.442,0.442,0.442,0.442,0.443,0.443,0.443,0.444,0.444,0.444,0.445,0.445,0.446,0.446,0.447,0.447,0.447,0.447,0.447,0.447,0.447,0.447,0.447,0.447,0.447,0.447,0.447,0.447,0.447,0.447,0.448,0.448,0.448,0.448,0.448,0.449,0.449,0.45,0.45,0.451,0.451,0.451,0.452,0.452,0.452,0.452,0.453,0.452,0.453,0.453,0.453,0.453,0.453,0.454,0.454,0.454,0.454,0.454,0.454,0.454,0.454,0.454,0.454,0.454,0.454,0.454,0.454,0.454,0.455,0.455,0.455,0.455,0.455,0.456,0.456,0.456,0.456,0.456,0.457,0.457,0.457,0.457,0.458,0.458,0.458,0.459,0.459,0.46,0.46,0.46,0.46,0.46,0.461,0.461,0.461,0.462,0.462,0.462,0.462,0.462,0.462,0.463,0.463,0.463,0.463,0.464,0.464,0.465,0.465,0.465,0.465,0.465,0.466,0.466,0.466,0.466,0.467,0.467,0.467,0.468,0.468,0.468,0.468,0.468,0.469,0.469,0.469,0.47,0.47,0.47,0.471,0.471,0.471,0.472,0.472,0.473,0.473,0.473,0.473,0.473,0.473,0.473,0.473,0.473,0.473,0.474,0.474,0.474,0.474,0.474,0.474,0.475,0.475,0.475,0.475,0.476,0.476,0.477,0.477,0.477,0.477,0.477,0.477,0.477,0.477,0.478,0.478,0.478,0.479,0.479,0.48,0.48,0.48,0.48,0.481,0.481,0.481,0.481,0.481,0.481,0.481,0.482,0.482,0.482,0.482,0.483,0.483,0.483,0.484,0.484,0.484,0.484,0.485,0.485,0.486,0.485,0.486,0.486,0.486,0.486,0.486,0.486,0.486,0.486,0.486,0.486,0.487,0.488,0.488,0.489,0.49,0.491,0.491,0.492,0.492,0.493,0.493,0.493,0.493,0.492,0.492,0.492,0.491,0.491,0.49,0.49,0.49,0.49,0.49,0.489,0.489,0.489,0.489,0.489,0.489,0.488,0.488,0.488,0.488,0.488,0.488,0.488,0.488,0.488,0.488,0.488,0.488,0.488,0.488,0.489,0.489,0.489,0.49,0.49,0.49,0.49,0.49,0.49,0.491,0.491,0.491,0.491,0.491,0.492,0.492,0.492,0.493,0.493,0.493,0.493,0.493,0.493,0.493,0.494,0.494,0.494,0.494,0.494,0.495,0.495,0.495,0.495,0.495,0.495,0.495,0.496,0.496,0.496,0.496,0.496,0.496,0.496,0.496,0.496,0.496,0.497,0.497,0.497,0.497,0.498,0.499,0.499,0.499,0.5,0.501,0.501,0.501,0.502,0.503,0.503,0.503,0.504,0.504,0.504,0.505,0.505,0.506,0.506,0.506,0.507,0.507,0.507,0.508,0.508,0.508,0.508,0.508,0.508,0.508,0.508,0.508,0.508,0.508,0.508,0.509,0.509,0.509,0.509,0.509,0.509,0.509
0.751,0.752,0.753,0.753,0.753,0.754,0.755,0.756,0.757,0.758,0.759,0.76,0.761,0.762,0.763,0.763,0.763,0.763,0.763,0.764,0.763,0.763,0.762,0.762,0.761,0.762,0.761,0,0,0,0,0,0,0,0,0,0,0,0,0,0,0,0,0,0.456,0.456,0.456,0.456,0.456,0.456,0.455,0.455,0.455,0.456,0.456,0.456,0.456,0.456,0.457,0.457,0.457,0.457,0.457,0.457,0.458,0.458,0.458,0.458,0.458,0.458,0.458,0.459,0.459,0.46,0.46,0.461,0.461,0.461,0.462,0.462,0.463,0.463,0.463,0.463,0.463,0.464,0.464,0.464,0.464,0.464,0.464,0.464,0.465,0.465,0.465,0.465,0.465,0.465,0.465,0.465,0.465,0.465,0.465,0.466,0.466,0.466,0.466,0.466,0.466,0.466,0.466,0.467,0.468,0.467,0.468,0.468,0.468,0.468,0.467,0,0,0,0,0,0,0.431,0.431,0.429,0.428,0.428,0.427,0.426,0.426,0.426,0.426,0.427,0.426,0.427,0.427,0.427,0.427,0.428,0.428,0.428,0.428,0.428,0.428,0.429,0.429,0.429,0.429,0.429,0.429,0.429,0.429,0.429,0.429,0.429,0.43,0.43,0.43,0.43,0.43,0.431,0.431,0.431,0.431,0.431,0.431,0.431,0.432,0.432,0.433,0.433,0.433,0.433,0.433,0.434,0.434,0.434,0.434,0.434,0.434,0.434,0.434,0.434,0.434,0.434,0.434,0.434,0.435,0.435,0.435,0.435,0.435,0.435,0.435,0.436,0.436,0.437,0.437,0.437,0.438,0.438,0.438,0.439,0.439,0.44,0.44,0.44,0.441,0.441,0.441,0.441,0.442,0.442,0.442,0.443,0.443,0.444,0.444,0.445,0.445,0.446,0.446,0.446,0.446,0.446,0.446,0.446,0.446,0.446,0.446,0.446,0.446,0.446,0.446,0.446,0.446,0.446,0.446,0.446,0.447,0.447,0.447,0.448,0.448,0.449,0.449,0.45,0.45,0.451,0.451,0.451,0.451,0.451,0.451,0.452,0.452,0.452,0.452,0.452,0.452,0.452,0.452,0.453,0.453,0.453,0.453,0.453,0.453,0.453,0.453,0.453,0.453,0.453,0.453,0.454,0.454,0.454,0.454,0.454,0.454,0.455,0.455,0.455,0.455,0.455,0.456,0.456,0.456,0.456,0.457,0.457,0.457,0.458,0.458,0.458,0.459,0.459,0.459,0.459,0.46,0.46,0.46,0.46,0.46,0.46,0.461,0.461,0.461,0.462,0.462,0.462,0.462,0.463,0.463,0.463,0.464,0.464,0.464,0.464,0.464,0.465,0.465,0.465,0.465,0.465,0.466,0.466,0.466,0.466,0.467,0.467,0.468,0.468,0.469,0.469,0.469,0.47,0.47,0.471,0.471,0.471,0.471,0.471,0.471,0.472,0.472,0.472,0.472,0.472,0.472,0.472,0.472,0.472,0.472,0.472,0.473,0.473,0.473,0.474,0.474,0.474,0.475,0.475,0.475,0.475,0.475,0.475,0.475,0.475,0.476,0.476,0.476,0.476,0.477,0.477,0.478,0.478,0.478,0.478,0.479,0.479,0.479,0.48,0.48,0.48,0.48,0.48,0.48,0.481,0.481,0.481,0.481,0.482,0.482,0.482,0.483,0.483,0.483,0.483,0.484,0.484,0.484,0.484,0.484,0.484,0.484,0.484,0.484,0.485,0.485,0.485,0.485,0.485,0.486,0.487,0.488,0.488,0.489,0.49,0.49,0.491,0.491,0.491,0.491,0.491,0.491,0.491,0.49,0.49,0.49,0.489,0.488,0.488,0.488,0.488,0.488,0.488,0.487,0.487,0.487,0.487,0.487,0.487,0.487,0.487,0.486,0.486,0.486,0.486,0.486,0.486,0.486,0.486,0.486,0.487,0.487,0.487,0.488,0.488,0.488,0.488,0.488,0.489,0.489,0.489,0.49,0.49,0.49,0.49,0.49,0.491,0.491,0.491,0.491,0.491,0.491,0.492,0.492,0.492,0.492,0.493,0.492,0.493,0.493,0.493,0.493,0.494,0.494,0.494,0.494,0.494,0.494,0.495,0.495,0.495,0.495,0.495,0.495,0.495,0.495,0.495,0.495,0.495,0.496,0.496,0.497,0.497,0.498,0.498,0.499,0.499,0.5,0.501,0.501,0.501,0.501,0.502,0.502,0.503,0.503,0.504,0.504,0.504,0.505,0.505,0.505,0.506,0.506,0.506,0.506,0.506,0.506,0.506,0.506,0.506,0.506,0.507,0.507,0.507,0.507,0.507,0.507,0.507,0.507,0.507,0.507,0.507
0.751,0.752,0.753,0.753,0.754,0.754,0.755,0.756,0.758,0.759,0.759,0.76,0.762,0.763,0.763,0.764,0.764,0.764,0.764,0.764,0.764,0.762,0.762,0.762,0.762,0.762,0,0,0,0,0,0,0,0,0,0,0,0,0,0,0,0,0,0.455,0.455,0.455,0.455,0.455,0.455,0.455,0.454,0.454,0.455,0.455,0.455,0.455,0.455,0.456,0.456,0.456,0.456,0.456,0.456,0.456,0.457,0.457,0.457,0.457,0.457,0.457,0.457,0.458,0.458,0.459,0.459,0.46,0.46,0.46,0.461,0.461,0.462,0.462,0.462,0.462,0.462,0.463,0.463,0.463,0.463,0.463,0.463,0.464,0.464,0.464,0.464,0.464,0.464,0.464,0.464,0.464,0.464,0.464,0.465,0.465,0.465,0.465,0.465,0.465,0.465,0.465,0.465,0.466,0.466,0.467,0.467,0.467,0.468,0.468,0.467,0,0,0,0,0,0,0.43,0.429,0.428,0.427,0.427,0.426,0.425,0.425,0.425,0.425,0.425,0.425,0.426,0.426,0.426,0.426,0.426,0.426,0.426,0.427,0.427,0.427,0.428,0.428,0.428,0.428,0.428,0.428,0.428,0.428,0.428,0.428,0.428,0.429,0.429,0.429,0.429,0.429,0.43,0.43,0.43,0.43,0.43,0.43,0.43,0.431,0.431,0.431,0.431,0.432,0.432,0.432,0.432,0.433,0.433,0.433,0.433,0.433,0.433,0.433,0.434,0.434,0.434,0.434,0.434,0.434,0.434,0.434,0.434,0.434,0.434,0.434,0.435,0.435,0.435,0.436,0.436,0.436,0.437,0.437,0.438,0.438,0.439,0.439,0.439,0.439,0.44,0.44,0.44,0.44,0.441,0.441,0.441,0.442,0.442,0.443,0.444,0.444,0.444,0.444,0.445,0.445,0.445,0.445,0.445,0.445,0.445,0.445,0.445,0.444,0.445,0.444,0.444,0.444,0.445,0.445,0.445,0.446,0.446,0.446,0.447,0.447,0.448,0.448,0.449,0.449,0.449,0.449,0.45,0.45,0.45,0.45,0.45,0.45,0.451,0.451,0.451,0.451,0.451,0.451,0.451,0.451,0.451,0.451,0.452,0.452,0.452,0.451,0.452,0.451,0.452,0.452,0.452,0.452,0.453,0.453,0.453,0.453,0.453,0.453,0.453,0.454,0.454,0.454,0.455,0.455,0.455,0.455,0.456,0.456,0.457,0.457,0.457,0.457,0.457,0.458,0.458,0.458,0.458,0.459,0.459,0.459,0.459,0.46,0.46,0.46,0.461,0.461,0.461,0.461,0.462,0.462,0.462,0.462,0.462,0.463,0.463,0.463,0.463,0.463,0.464,0.464,0.464,0.464,0.465,0.465,0.465,0.465,0.466,0.466,0.466,0.467,0.468,0.468,0.469,0.469,0.469,0.47,0.47,0.47,0.47,0.47,0.471,0.471,0.471,0.471,0.471,0.471,0.471,0.471,0.471,0.471,0.471,0.471,0.471,0.472,0.473,0.473,0.473,0.473,0.474,0.474,0.474,0.474,0.474,0.474,0.474,0.474,0.474,0.475,0.475,0.475,0.475,0.476,0.476,0.477,0.477,0.477,0.477,0.478,0.478,0.478,0.478,0.478,0.479,0.479,0.48,0.48,0.48,0.48,0.481,0.481,0.481,0.481,0.481,0.482,0.482,0.482,0.482,0.483,0.483,0.483,0.483,0.483,0.483,0.483,0.483,0.483,0.484,0.484,0.484,0.485,0.486,0.486,0.487,0.488,0.489,0.489,0.49,0.49,0.49,0.49,0.49,0.489,0.489,0.489,0.488,0.488,0.488,0.487,0.486,0.486,0.486,0.486,0.486,0.486,0.486,0.486,0.486,0.486,0.485,0.485,0.485,0.485,0.485,0.485,0.485,0.485,0.485,0.485,0.485,0.485,0.485,0.486,0.486,0.486,0.486,0.486,0.487,0.487,0.487,0.488,0.488,0.488,0.488,0.489,0.489,0.489,0.489,0.49,0.49,0.49,0.49,0.49,0.491,0.491,0.491,0.491,0.491,0.491,0.491,0.492,0.492,0.492,0.493,0.493,0.493,0.493,0.493,0.493,0.493,0.493,0.493,0.493,0.493,0.493,0.494,0.494,0.494,0.494,0.495,0.495,0.495,0.496,0.496,0.497,0.497,0.498,0.498,0.499,0.499,0.5,0.5,0.5,0.501,0.501,0.501,0.501,0.502,0.502,0.503,0.503,0.504,0.504,0.504,0.504,0.505,0.505,0.505,0.505,0.505,0.505,0.505,0.505,0.505,0.505,0.505,0.506,0.506,0.506,0.506,0.506,0.506,0.506,0.506
0.751,0.752,0.753,0.753,0.754,0.755,0.756,0.757,0.759,0.76,0.76,0.762,0.763,0.764,0.765,0.765,0.765,0.765,0.765,0.766,0.764,0.764,0.763,0.762,0.762,0,0,0,0,0,0,0,0,0,0,0,0,0,0,0,0,0,0.454,0.454,0.453,0.454,0.454,0.454,0.454,0.454,0.453,0.453,0.454,0.454,0.454,0.454,0.454,0.454,0.455,0.455,0.455,0.455,0.455,0.455,0.455,0.456,0.456,0.456,0.456,0.456,0.456,0.457,0.457,0.458,0.458,0.458,0.459,0.459,0.46,0.46,0.46,0.461,0.461,0.461,0.461,0.462,0.462,0.462,0.462,0.462,0.462,0.463,0.463,0.463,0.463,0.463,0.463,0.463,0.463,0.463,0.463,0.463,0.464,0.464,0.464,0.464,0.464,0.464,0.464,0.464,0.465,0.465,0.465,0.466,0.466,0.466,0.466,0.467,0.466,0.464,0,0,0.444,0.434,0,0,0.429,0.428,0.427,0.426,0.425,0.424,0.424,0.424,0.424,0.424,0.424,0.425,0.425,0.425,0.425,0.425,0.425,0.425,0.426,0.426,0.426,0.426,0.427,0.427,0.427,0.427,0.427,0.427,0.427,0.428,0.428,0.428,0.428,0.428,0.428,0.428,0.428,0.428,0.429,0.429,0.429,0.429,0.429,0.429,0.43,0.43,0.43,0.431,0.431,0.431,0.431,0.431,0.431,0.432,0.432,0.432,0.432,0.432,0.432,0.433,0.433,0.433,0.433,0.433,0.433,0.433,0.433,0.433,0.433,0.433,0.434,0.434,0.434,0.434,0.435,0.435,0.435,0.435,0.436,0.436,0.437,0.437,0.438,0.438,0.438,0.439,0.439,0.439,0.439,0.439,0.44,0.44,0.441,0.441,0.442,0.442,0.442,0.443,0.443,0.443,0.443,0.443,0.443,0.444,0.444,0.444,0.444,0.443,0.443,0.443,0.443,0.443,0.443,0.443,0.443,0.444,0.444,0.445,0.445,0.446,0.446,0.447,0.447,0.447,0.448,0.448,0.448,0.448,0.449,0.449,0.449,0.449,0.449,0.449,0.449,0.449,0.449,0.449,0.45,0.45,0.45,0.45,0.45,0.45,0.45,0.45,0.45,0.45,0.45,0.45,0.451,0.451,0.451,0.451,0.451,0.452,0.452,0.452,0.452,0.452,0.452,0.453,0.453,0.453,0.454,0.454,0.454,0.454,0.455,0.455,0.456,0.456,0.456,0.456,0.456,0.456,0.457,0.457,0.457,0.457,0.457,0.458,0.458,0.458,0.459,0.46,0.46,0.46,0.46,0.461,0.461,0.461,0.461,0.461,0.461,0.461,0.461,0.462,0.462,0.462,0.463,0.463,0.463,0.463,0.463,0.464,0.464,0.464,0.465,0.465,0.466,0.466,0.467,0.467,0.468,0.468,0.469,0.469,0.469,0.469,0.469,0.469,0.47,0.47,0.47,0.47,0.47,0.47,0.47,0.47,0.47,0.47,0.47,0.47,0.471,0.471,0.471,0.471,0.472,0.472,0.472,0.472,0.473,0.473,0.473,0.473,0.473,0.473,0.473,0.474,0.474,0.474,0.474,0.475,0.475,0.475,0.475,0.476,0.476,0.476,0.477,0.477,0.477,0.477,0.478,0.478,0.478,0.478,0.479,0.479,0.48,0.48,0.48,0.48,0.48,0.481,0.481,0.481,0.481,0.481,0.481,0.481,0.481,0.481,0.482,0.482,0.482,0.482,0.482,0.483,0.483,0.484,0.485,0.486,0.486,0.487,0.488,0.488,0.489,0.489,0.489,0.488,0.488,0.488,0.487,0.487,0.486,0.486,0.485,0.485,0.485,0.485,0.484,0.484,0.484,0.484,0.484,0.484,0.484,0.484,0.484,0.484,0.484,0.484,0.484,0.484,0.484,0.483,0.483,0.484,0.484,0.484,0.484,0.484,0.484,0.485,0.485,0.486,0.486,0.486,0.486,0.486,0.487,0.487,0.487,0.488,0.488,0.488,0.488,0.488,0.488,0.488,0.489,0.489,0.489,0.489,0.49,0.49,0.49,0.49,0.49,0.491,0.491,0.491,0.491,0.491,0.491,0.492,0.492,0.492,0.492,0.492,0.492,0.492,0.492,0.493,0.493,0.493,0.493,0.493,0.493,0.494,0.495,0.495,0.496,0.496,0.497,0.497,0.498,0.498,0.499,0.499,0.499,0.499,0.5,0.5,0.5,0.5,0.501,0.501,0.501,0.502,0.502,0.502,0.503,0.503,0.503,0.504,0.504,0.504,0.504,0.504,0.504,0.504,0.504,0.504,0.504,0.504,0.504,0.504,0.504,0.504,0.504,0.504
0.752,0.753,0.753,0.754,0.755,0.756,0.757,0.758,0.76,0.761,0.762,0.763,0.764,0.766,0.766,0.767,0.767,0.766,0.767,0.766,0.766,0.765,0.764,0.763,0.763,0,0,0,0,0,0,0,0,0,0,0,0,0,0,0,0,0,0,0.452,0.452,0.452,0.452,0.452,0.453,0.453,0.453,0.453,0.453,0.453,0.453,0.453,0.453,0.454,0.454,0.454,0.454,0.454,0.454,0.454,0.454,0.455,0.455,0.455,0.455,0.455,0.455,0.456,0.456,0.457,0.457,0.457,0.458,0.458,0.459,0.459,0.459,0.459,0.459,0.46,0.46,0.46,0.461,0.461,0.461,0.461,0.461,0.461,0.462,0.462,0.462,0.462,0.462,0.462,0.462,0.462,0.462,0.462,0.462,0.463,0.463,0.463,0.463,0.463,0.463,0.463,0.463,0.464,0.464,0.465,0.465,0.465,0.465,0.465,0,0,0,0,0.445,0.434,0,0.43,0.429,0.427,0.426,0.425,0.424,0.424,0.423,0.423,0.423,0.423,0.424,0.424,0.424,0.424,0.424,0.424,0.424,0.424,0.425,0.425,0.425,0.425,0.426,0.426,0.426,0.426,0.426,0.426,0.427,0.427,0.427,0.427,0.427,0.427,0.428,0.427,0.428,0.428,0.428,0.428,0.428,0.428,0.428,0.428,0.429,0.429,0.429,0.429,0.43,0.43,0.43,0.431,0.431,0.431,0.431,0.431,0.431,0.431,0.431,0.432,0.432,0.432,0.432,0.432,0.432,0.432,0.432,0.432,0.432,0.432,0.433,0.433,0.433,0.434,0.434,0.434,0.434,0.434,0.435,0.435,0.436,0.436,0.437,0.437,0.437,0.437,0.437,0.438,0.438,0.438,0.439,0.439,0.439,0.44,0.44,0.44,0.441,0.441,0.442,0.442,0.442,0.442,0.442,0.442,0.443,0.443,0.442,0.442,0.442,0.442,0.442,0.442,0.442,0.442,0.442,0.443,0.443,0.443,0.444,0.444,0.445,0.446,0.446,0.446,0.446,0.446,0.447,0.447,0.447,0.447,0.447,0.448,0.448,0.448,0.448,0.448,0.448,0.448,0.448,0.448,0.448,0.449,0.449,0.449,0.449,0.449,0.449,0.449,0.449,0.449,0.45,0.45,0.45,0.45,0.45,0.451,0.451,0.451,0.451,0.451,0.451,0.452,0.452,0.452,0.452,0.453,0.453,0.453,0.454,0.454,0.454,0.455,0.455,0.455,0.455,0.455,0.455,0.455,0.456,0.456,0.456,0.456,0.457,0.457,0.457,0.458,0.458,0.459,0.459,0.459,0.46,0.46,0.46,0.46,0.46,0.46,0.46,0.46,0.46,0.461,0.461,0.462,0.462,0.462,0.462,0.462,0.463,0.463,0.464,0.464,0.464,0.465,0.465,0.466,0.466,0.466,0.467,0.468,0.468,0.468,0.468,0.468,0.468,0.469,0.469,0.469,0.469,0.469,0.469,0.469,0.469,0.469,0.469,0.469,0.47,0.47,0.47,0.47,0.471,0.471,0.471,0.471,0.471,0.471,0.471,0.471,0.472,0.472,0.472,0.472,0.473,0.473,0.473,0.473,0.473,0.474,0.474,0.474,0.474,0.475,0.475,0.475,0.475,0.476,0.476,0.477,0.477,0.477,0.477,0.478,0.478,0.478,0.478,0.479,0.479,0.479,0.479,0.48,0.48,0.48,0.48,0.48,0.48,0.48,0.48,0.48,0.481,0.481,0.481,0.481,0.482,0.483,0.484,0.484,0.485,0.486,0.486,0.487,0.488,0.488,0.487,0.487,0.487,0.486,0.486,0.485,0.485,0.484,0.484,0.484,0.483,0.483,0.483,0.483,0.483,0.483,0.483,0.483,0.483,0.483,0.483,0.483,0.483,0.483,0.483,0.482,0.482,0.482,0.482,0.483,0.483,0.483,0.483,0.483,0.483,0.483,0.484,0.484,0.484,0.484,0.485,0.485,0.485,0.486,0.486,0.486,0.486,0.486,0.487,0.487,0.487,0.487,0.487,0.488,0.488,0.488,0.488,0.488,0.489,0.489,0.489,0.49,0.49,0.49,0.49,0.49,0.49,0.49,0.491,0.491,0.491,0.491,0.491,0.491,0.491,0.491,0.491,0.492,0.492,0.492,0.493,0.493,0.493,0.494,0.495,0.495,0.496,0.496,0.497,0.497,0.497,0.498,0.498,0.498,0.498,0.498,0.499,0.499,0.499,0.499,0.5,0.5,0.501,0.501,0.501,0.501,0.501,0.501,0.502,0.502,0.502,0.502,0.502,0.502,0.502,0.502,0.502,0.502,0.502,0.502,0.502,0.502,0.502,0.503
0.753,0.753,0.754,0.755,0.756,0.757,0.758,0.76,0.761,0.762,0.763,0.764,0.765,0.766,0.767,0.767,0.767,0.766,0.766,0.766,0.766,0.765,0.764,0.763,0,0,0,0,0,0,0,0,0,0,0,0,0,0,0,0,0,0,0.451,0.451,0.451,0.451,0.451,0.452,0.452,0.451,0.451,0.452,0.452,0.452,0.452,0.452,0.452,0.453,0.453,0.453,0.453,0.453,0.453,0.454,0.454,0.454,0.454,0.454,0.454,0.454,0.454,0.455,0.455,0.456,0.456,0.456,0.457,0.457,0.457,0.458,0.458,0.458,0.458,0.458,0.458,0.459,0.459,0.459,0.459,0.46,0.46,0.46,0.461,0.461,0.461,0.461,0.461,0.461,0.461,0.461,0.461,0.461,0.461,0.461,0.462,0.462,0.462,0.462,0.462,0.462,0.462,0.463,0.463,0.463,0.463,0.464,0,0,0,0,0,0,0.445,0.436,0.432,0,0,0.427,0.425,0.425,0.424,0.423,0.422,0.422,0.422,0.423,0.423,0.423,0.423,0.423,0.423,0.423,0.423,0.423,0.424,0.424,0.424,0.424,0.425,0.425,0.425,0.425,0.425,0.425,0.426,0.426,0.426,0.426,0.426,0.426,0.426,0.426,0.427,0.427,0.427,0.427,0.427,0.427,0.427,0.427,0.428,0.428,0.428,0.428,0.429,0.429,0.429,0.43,0.43,0.43,0.43,0.431,0.43,0.431,0.431,0.431,0.431,0.431,0.431,0.431,0.431,0.431,0.431,0.432,0.431,0.432,0.432,0.432,0.432,0.433,0.433,0.433,0.434,0.434,0.434,0.434,0.435,0.435,0.435,0.436,0.436,0.436,0.436,0.437,0.437,0.437,0.438,0.438,0.438,0.439,0.439,0.439,0.439,0.44,0.44,0.44,0.441,0.441,0.441,0.441,0.441,0.441,0.441,0.441,0.441,0.441,0.441,0.441,0.441,0.441,0.441,0.441,0.442,0.442,0.443,0.443,0.444,0.444,0.445,0.445,0.445,0.445,0.445,0.446,0.446,0.446,0.446,0.446,0.446,0.446,0.446,0.447,0.447,0.447,0.447,0.447,0.447,0.447,0.447,0.448,0.448,0.448,0.448,0.448,0.448,0.448,0.448,0.449,0.449,0.449,0.449,0.45,0.45,0.45,0.45,0.45,0.45,0.451,0.451,0.451,0.451,0.452,0.452,0.452,0.453,0.453,0.453,0.453,0.453,0.454,0.454,0.454,0.454,0.454,0.454,0.454,0.455,0.455,0.456,0.456,0.456,0.457,0.457,0.457,0.457,0.458,0.458,0.458,0.458,0.458,0.458,0.458,0.459,0.459,0.459,0.46,0.46,0.46,0.46,0.461,0.461,0.461,0.461,0.462,0.462,0.462,0.463,0.463,0.464,0.464,0.465,0.465,0.465,0.466,0.466,0.466,0.466,0.467,0.467,0.467,0.468,0.468,0.468,0.468,0.468,0.468,0.468,0.468,0.468,0.468,0.468,0.468,0.469,0.469,0.469,0.469,0.47,0.47,0.47,0.47,0.47,0.47,0.47,0.47,0.47,0.471,0.471,0.471,0.471,0.471,0.472,0.472,0.472,0.473,0.473,0.473,0.474,0.474,0.474,0.475,0.475,0.475,0.475,0.476,0.476,0.476,0.477,0.477,0.477,0.477,0.477,0.477,0.478,0.478,0.478,0.478,0.478,0.478,0.478,0.479,0.479,0.479,0.479,0.479,0.48,0.48,0.481,0.481,0.482,0.483,0.484,0.484,0.485,0.486,0.486,0.486,0.486,0.486,0.485,0.485,0.484,0.484,0.484,0.483,0.483,0.482,0.483,0.482,0.482,0.482,0.482,0.482,0.482,0.482,0.482,0.481,0.481,0.481,0.481,0.481,0.481,0.481,0.481,0.481,0.481,0.481,0.481,0.481,0.481,0.482,0.482,0.482,0.483,0.483,0.483,0.483,0.484,0.484,0.484,0.484,0.484,0.485,0.485,0.485,0.485,0.486,0.486,0.486,0.486,0.486,0.486,0.487,0.487,0.487,0.487,0.488,0.488,0.488,0.488,0.488,0.489,0.489,0.489,0.489,0.49,0.49,0.49,0.49,0.49,0.49,0.49,0.49,0.491,0.491,0.491,0.491,0.491,0.492,0.493,0.493,0.493,0.494,0.495,0.495,0.495,0.496,0.496,0.497,0.497,0.497,0.497,0.497,0.497,0.497,0.498,0.498,0.498,0.499,0.499,0.499,0.499,0.5,0.5,0.5,0.5,0.5,0.5,0.501,0.501,0.501,0.501,0.501,0.501,0.501,0.501,0.501,0.501,0.501,0.501,0.501
0.753,0.755,0.756,0.757,0.758,0.759,0.76,0.762,0.763,0.764,0.764,0.765,0.766,0.767,0.767,0.768,0.767,0.766,0.767,0.766,0.766,0.765,0.764,0,0,0,0,0,0,0,0,0,0,0,0,0,0,0,0,0,0,0.45,0.45,0.45,0.45,0.45,0.45,0.45,0.45,0.45,0.45,0.45,0.451,0.451,0.451,0.451,0.451,0.452,0.452,0.452,0.452,0.452,0.452,0.453,0.453,0.453,0.453,0.453,0.453,0.453,0.454,0.454,0.454,0.455,0.455,0.455,0.456,0.456,0.456,0.456,0.457,0.457,0.457,0.457,0.457,0.458,0.458,0.458,0.458,0.458,0.459,0.459,0.459,0.459,0.459,0.459,0.46,0.46,0.46,0.46,0.46,0.46,0.46,0.46,0.46,0.461,0.461,0.461,0.461,0.461,0.462,0.462,0.462,0.462,0.462,0.462,0,0,0,0,0,0,0.446,0.437,0.432,0,0.428,0.426,0.425,0.424,0.423,0.422,0.422,0.422,0.422,0.422,0.422,0.422,0.422,0.422,0.422,0.422,0.422,0.423,0.423,0.423,0.423,0.423,0.423,0.423,0.424,0.424,0.424,0.424,0.425,0.425,0.425,0.425,0.425,0.425,0.425,0.425,0.426,0.426,0.426,0.426,0.426,0.426,0.426,0.426,0.427,0.427,0.427,0.428,0.428,0.428,0.428,0.428,0.429,0.429,0.429,0.429,0.43,0.43,0.43,0.43,0.431,0.431,0.431,0.431,0.431,0.431,0.431,0.431,0.431,0.431,0.431,0.431,0.431,0.432,0.432,0.432,0.433,0.433,0.433,0.434,0.434,0.434,0.434,0.435,0.435,0.435,0.435,0.435,0.436,0.436,0.436,0.437,0.437,0.437,0.438,0.438,0.438,0.439,0.439,0.439,0.439,0.439,0.44,0.44,0.44,0.44,0.44,0.44,0.44,0.44,0.44,0.44,0.44,0.44,0.441,0.441,0.441,0.442,0.442,0.442,0.442,0.443,0.443,0.443,0.443,0.443,0.443,0.444,0.444,0.445,0.445,0.445,0.445,0.445,0.446,0.446,0.446,0.446,0.446,0.446,0.446,0.446,0.446,0.446,0.447,0.447,0.447,0.447,0.447,0.447,0.447,0.448,0.448,0.448,0.448,0.449,0.449,0.449,0.449,0.449,0.449,0.45,0.45,0.45,0.45,0.451,0.451,0.451,0.452,0.452,0.452,0.452,0.452,0.452,0.452,0.452,0.452,0.453,0.453,0.453,0.453,0.454,0.454,0.455,0.455,0.455,0.455,0.456,0.456,0.456,0.457,0.457,0.457,0.457,0.457,0.457,0.458,0.458,0.458,0.458,0.459,0.459,0.459,0.459,0.46,0.46,0.46,0.461,0.461,0.462,0.462,0.462,0.462,0.463,0.463,0.463,0.464,0.464,0.464,0.464,0.465,0.465,0.465,0.465,0.466,0.466,0.466,0.466,0.466,0.466,0.466,0.466,0.466,0.467,0.467,0.467,0.467,0.468,0.468,0.468,0.468,0.468,0.468,0.469,0.469,0.469,0.469,0.469,0.469,0.47,0.47,0.47,0.47,0.47,0.47,0.471,0.471,0.471,0.471,0.472,0.472,0.473,0.473,0.473,0.474,0.474,0.474,0.474,0.474,0.475,0.475,0.475,0.475,0.475,0.475,0.476,0.476,0.476,0.477,0.477,0.477,0.477,0.477,0.477,0.478,0.478,0.478,0.478,0.478,0.478,0.479,0.48,0.481,0.481,0.483,0.483,0.484,0.484,0.485,0.485,0.485,0.484,0.484,0.484,0.483,0.483,0.483,0.482,0.481,0.481,0.481,0.481,0.481,0.481,0.481,0.481,0.481,0.481,0.481,0.48,0.48,0.48,0.48,0.48,0.48,0.48,0.48,0.48,0.48,0.48,0.48,0.48,0.48,0.481,0.481,0.481,0.481,0.481,0.482,0.482,0.482,0.483,0.483,0.483,0.483,0.483,0.484,0.484,0.484,0.484,0.484,0.484,0.485,0.485,0.485,0.485,0.486,0.486,0.486,0.486,0.486,0.487,0.487,0.487,0.487,0.488,0.488,0.488,0.488,0.488,0.488,0.489,0.489,0.489,0.489,0.49,0.49,0.49,0.49,0.49,0.491,0.491,0.491,0.492,0.493,0.493,0.493,0.494,0.494,0.495,0.495,0.495,0.495,0.495,0.495,0.496,0.496,0.496,0.496,0.497,0.497,0.497,0.497,0.498,0.498,0.498,0.498,0.499,0.499,0.499,0.499,0.499,0.499,0.499,0.499,0.499,0.499,0.499,0.499,0.499,0.499,0.499,0.5,0.5
0.754,0.756,0.757,0.758,0.76,0.761,0.762,0.763,0.764,0.765,0.765,0.766,0.767,0.767,0.768,0.768,0.768,0.767,0.767,0.767,0.767,0.765,0,0,0,0,0,0,0,0,0,0,0,0,0,0,0,0,0,0,0.449,0.449,0.449,0.449,0.449,0.449,0.449,0.449,0.449,0.449,0.449,0.449,0.449,0.45,0.45,0.45,0.45,0.451,0.451,0.451,0.451,0.451,0.451,0.451,0.452,0.452,0.452,0.452,0.452,0.452,0.453,0.453,0.454,0.454,0.454,0.454,0.455,0.455,0.455,0.455,0.456,0.456,0.456,0.456,0.456,0.457,0.457,0.457,0.457,0.457,0.457,0.458,0.458,0.458,0.458,0.458,0.458,0.458,0.458,0.458,0.458,0.459,0.459,0.459,0.459,0.46,0.46,0.46,0.46,0.46,0.46,0.461,0.46,0.461,0.461,0.46,0.461,0.46,0.459,0,0,0,0,0.439,0.434,0.43,0.428,0.426,0.424,0.423,0.422,0.421,0.421,0.421,0.421,0.421,0.421,0.421,0.421,0.421,0.421,0.421,0.421,0.422,0.422,0.422,0.422,0.422,0.422,0.423,0.423,0.423,0.423,0.423,0.424,0.424,0.424,0.424,0.424,0.424,0.424,0.424,0.425,0.425,0.425,0.425,0.425,0.425,0.425,0.425,0.426,0.426,0.426,0.427,0.427,0.427,0.428,0.428,0.428,0.428,0.428,0.429,0.429,0.429,0.429,0.429,0.429,0.429,0.43,0.43,0.43,0.43,0.43,0.43,0.43,0.43,0.431,0.431,0.431,0.431,0.431,0.432,0.432,0.432,0.433,0.433,0.433,0.434,0.434,0.434,0.434,0.434,0.434,0.434,0.435,0.435,0.435,0.435,0.436,0.436,0.436,0.436,0.437,0.437,0.438,0.438,0.438,0.439,0.439,0.439,0.439,0.439,0.439,0.439,0.439,0.439,0.439,0.439,0.439,0.439,0.44,0.44,0.44,0.441,0.441,0.441,0.441,0.442,0.442,0.442,0.442,0.442,0.442,0.442,0.443,0.443,0.443,0.444,0.444,0.444,0.444,0.445,0.445,0.445,0.445,0.445,0.445,0.445,0.445,0.445,0.446,0.446,0.446,0.446,0.446,0.446,0.446,0.447,0.447,0.447,0.448,0.448,0.448,0.448,0.448,0.449,0.449,0.449,0.449,0.449,0.45,0.45,0.45,0.45,0.451,0.451,0.451,0.451,0.451,0.451,0.451,0.451,0.451,0.451,0.452,0.452,0.452,0.452,0.453,0.453,0.454,0.454,0.454,0.455,0.455,0.455,0.455,0.456,0.456,0.456,0.456,0.456,0.456,0.456,0.457,0.457,0.457,0.457,0.458,0.458,0.458,0.458,0.459,0.46,0.46,0.46,0.461,0.461,0.461,0.462,0.462,0.462,0.462,0.462,0.463,0.463,0.463,0.464,0.464,0.464,0.464,0.464,0.465,0.465,0.465,0.465,0.465,0.465,0.465,0.465,0.466,0.466,0.466,0.466,0.466,0.466,0.466,0.467,0.467,0.467,0.468,0.468,0.468,0.468,0.468,0.469,0.469,0.469,0.469,0.47,0.47,0.47,0.47,0.47,0.47,0.471,0.471,0.471,0.471,0.472,0.472,0.473,0.473,0.473,0.473,0.474,0.474,0.474,0.474,0.474,0.474,0.474,0.474,0.475,0.475,0.475,0.475,0.475,0.475,0.476,0.476,0.477,0.477,0.477,0.477,0.477,0.478,0.479,0.479,0.48,0.481,0.481,0.482,0.483,0.483,0.483,0.483,0.483,0.483,0.483,0.482,0.482,0.481,0.481,0.48,0.48,0.48,0.48,0.48,0.48,0.479,0.479,0.479,0.479,0.479,0.479,0.479,0.479,0.479,0.479,0.479,0.479,0.479,0.479,0.479,0.479,0.479,0.479,0.479,0.48,0.48,0.48,0.48,0.48,0.481,0.481,0.481,0.481,0.481,0.482,0.482,0.482,0.482,0.483,0.483,0.483,0.483,0.483,0.483,0.484,0.484,0.484,0.484,0.484,0.484,0.485,0.485,0.485,0.486,0.486,0.486,0.486,0.486,0.487,0.487,0.487,0.487,0.488,0.488,0.488,0.488,0.488,0.489,0.489,0.489,0.49,0.49,0.49,0.491,0.491,0.491,0.492,0.492,0.493,0.493,0.493,0.493,0.494,0.494,0.494,0.494,0.494,0.495,0.495,0.495,0.495,0.495,0.496,0.496,0.497,0.497,0.497,0.497,0.497,0.497,0.497,0.497,0.497,0.497,0.498,0.498,0.498,0.498,0.498,0.498,0.498,0.498,0.498,0.498,0.499
0.755,0.757,0.758,0.759,0.761,0.762,0.763,0.764,0.765,0.766,0.766,0.767,0.767,0.768,0.768,0.767,0.767,0.767,0.767,0.766,0.767,0.766,0.765,0,0,0,0,0,0,0,0,0,0,0,0,0,0,0,0,0,0,0.448,0.448,0.448,0.448,0.448,0.448,0.448,0.448,0.448,0.448,0.448,0.448,0.448,0.449,0.449,0.449,0.449,0.45,0.45,0.45,0.45,0.45,0.45,0.451,0.451,0.451,0.451,0.451,0.452,0.452,0.452,0.453,0.453,0.453,0.453,0.454,0.454,0.454,0.454,0.454,0.454,0.455,0.455,0.455,0.455,0.455,0.455,0.456,0.456,0.456,0.456,0.456,0.457,0.457,0.457,0.457,0.457,0.457,0.457,0.457,0.457,0.457,0.458,0.458,0.458,0.458,0.459,0.459,0.459,0.459,0.459,0.459,0.459,0.459,0.459,0.458,0.458,0.457,0,0,0,0.446,0.44,0,0,0,0.426,0.424,0.422,0.422,0.421,0.42,0.42,0.42,0.42,0.42,0.42,0.42,0.42,0.42,0.42,0.42,0.421,0.421,0.421,0.421,0.421,0.421,0.421,0.422,0.422,0.422,0.422,0.423,0.423,0.423,0.423,0.423,0.423,0.423,0.423,0.423,0.423,0.424,0.424,0.424,0.424,0.424,0.425,0.425,0.425,0.425,0.426,0.426,0.427,0.427,0.427,0.427,0.428,0.428,0.428,0.428,0.428,0.428,0.428,0.428,0.429,0.429,0.429,0.429,0.429,0.429,0.43,0.429,0.43,0.43,0.43,0.43,0.431,0.431,0.431,0.431,0.432,0.432,0.432,0.433,0.433,0.433,0.433,0.433,0.433,0.433,0.434,0.434,0.434,0.434,0.434,0.434,0.434,0.435,0.435,0.435,0.436,0.436,0.437,0.437,0.437,0.438,0.438,0.438,0.438,0.438,0.438,0.438,0.438,0.438,0.438,0.438,0.439,0.439,0.439,0.439,0.439,0.44,0.44,0.44,0.44,0.44,0.441,0.44,0.441,0.441,0.441,0.442,0.442,0.442,0.442,0.442,0.443,0.443,0.443,0.443,0.443,0.444,0.444,0.444,0.444,0.444,0.444,0.445,0.445,0.445,0.445,0.445,0.446,0.446,0.446,0.446,0.447,0.447,0.447,0.448,0.448,0.448,0.448,0.448,0.449,0.449,0.449,0.449,0.449,0.449,0.449,0.45,0.45,0.45,0.45,0.45,0.45,0.45,0.45,0.45,0.45,0.45,0.45,0.45,0.451,0.451,0.452,0.452,0.453,0.453,0.453,0.454,0.454,0.454,0.455,0.455,0.455,0.455,0.455,0.455,0.455,0.455,0.456,0.456,0.456,0.456,0.457,0.457,0.457,0.457,0.458,0.458,0.459,0.459,0.46,0.46,0.461,0.461,0.461,0.461,0.461,0.462,0.462,0.462,0.462,0.463,0.463,0.463,0.463,0.463,0.464,0.464,0.464,0.464,0.464,0.464,0.464,0.464,0.464,0.465,0.465,0.465,0.465,0.465,0.465,0.466,0.466,0.466,0.466,0.467,0.467,0.467,0.468,0.468,0.468,0.468,0.469,0.469,0.469,0.469,0.469,0.469,0.469,0.47,0.47,0.47,0.471,0.471,0.471,0.471,0.472,0.472,0.473,0.473,0.473,0.473,0.473,0.473,0.473,0.473,0.473,0.473,0.473,0.474,0.474,0.474,0.474,0.475,0.475,0.475,0.475,0.475,0.475,0.476,0.477,0.478,0.479,0.48,0.48,0.481,0.481,0.482,0.482,0.482,0.482,0.481,0.481,0.481,0.48,0.48,0.479,0.48,0.479,0.478,0.478,0.478,0.478,0.478,0.478,0.478,0.478,0.478,0.478,0.478,0.477,0.477,0.477,0.477,0.478,0.478,0.478,0.478,0.478,0.478,0.478,0.478,0.478,0.478,0.479,0.479,0.479,0.479,0.48,0.48,0.48,0.48,0.48,0.48,0.481,0.481,0.481,0.481,0.481,0.482,0.482,0.482,0.482,0.483,0.483,0.483,0.483,0.483,0.483,0.484,0.484,0.484,0.484,0.484,0.485,0.485,0.485,0.485,0.486,0.486,0.486,0.486,0.487,0.487,0.487,0.488,0.488,0.488,0.488,0.489,0.489,0.49,0.49,0.49,0.491,0.491,0.491,0.492,0.492,0.492,0.492,0.493,0.493,0.493,0.493,0.493,0.493,0.494,0.494,0.494,0.495,0.495,0.495,0.495,0.495,0.496,0.496,0.496,0.496,0.496,0.496,0.496,0.496,0.496,0.496,0.497,0.497,0.497,0.497,0.497,0.497,0.497,0.497
0.756,0.758,0.759,0.76,0.761,0.762,0.764,0.765,0.765,0.766,0.766,0.766,0.766,0.766,0.766,0.767,0.767,0.766,0.766,0.766,0.766,0.765,0,0,0,0,0,0,0,0,0,0,0,0,0,0,0,0,0,0,0.446,0.446,0.447,0.447,0.447,0.447,0.447,0.447,0.447,0.447,0.447,0.447,0.447,0.447,0.447,0.448,0.448,0.448,0.448,0.449,0.449,0.449,0.449,0.449,0.449,0.45,0.45,0.45,0.45,0.45,0.451,0.451,0.451,0.451,0.452,0.452,0.452,0.453,0.453,0.453,0.453,0.453,0.453,0.454,0.454,0.454,0.454,0.454,0.454,0.455,0.455,0.455,0.455,0.455,0.456,0.456,0.456,0.456,0.456,0.456,0.456,0.456,0.456,0.456,0.457,0.457,0.457,0.457,0.457,0.458,0.458,0.458,0.458,0.458,0.458,0.458,0.457,0.457,0.456,0.455,0,0,0.448,0.442,0.435,0,0,0.425,0.423,0.422,0.421,0.421,0.42,0.419,0.419,0.419,0.419,0.419,0.419,0.419,0.419,0.419,0.42,0.42,0.42,0.42,0.42,0.42,0.42,0.421,0.421,0.421,0.421,0.421,0.422,0.422,0.422,0.422,0.422,0.422,0.422,0.422,0.422,0.423,0.423,0.423,0.423,0.423,0.423,0.424,0.424,0.424,0.425,0.425,0.425,0.425,0.426,0.426,0.426,0.427,0.427,0.427,0.427,0.427,0.427,0.427,0.428,0.428,0.428,0.428,0.428,0.428,0.428,0.429,0.428,0.429,0.429,0.429,0.429,0.43,0.43,0.431,0.431,0.431,0.431,0.432,0.432,0.432,0.432,0.432,0.432,0.432,0.432,0.432,0.432,0.433,0.433,0.433,0.433,0.433,0.434,0.434,0.434,0.434,0.435,0.435,0.435,0.436,0.436,0.437,0.437,0.437,0.437,0.437,0.437,0.437,0.437,0.437,0.437,0.438,0.438,0.438,0.438,0.439,0.439,0.439,0.439,0.439,0.439,0.44,0.439,0.439,0.44,0.44,0.44,0.44,0.44,0.44,0.441,0.441,0.442,0.442,0.442,0.442,0.442,0.443,0.443,0.443,0.443,0.444,0.444,0.444,0.444,0.445,0.445,0.445,0.446,0.446,0.446,0.446,0.446,0.446,0.447,0.447,0.447,0.447,0.447,0.448,0.448,0.448,0.448,0.448,0.448,0.448,0.448,0.449,0.449,0.449,0.449,0.449,0.448,0.449,0.449,0.449,0.449,0.449,0.449,0.449,0.45,0.451,0.451,0.451,0.451,0.452,0.452,0.453,0.453,0.454,0.454,0.454,0.454,0.454,0.454,0.454,0.454,0.454,0.455,0.455,0.455,0.455,0.456,0.456,0.456,0.457,0.457,0.458,0.458,0.458,0.459,0.459,0.46,0.46,0.46,0.46,0.461,0.461,0.461,0.461,0.461,0.462,0.462,0.462,0.462,0.462,0.463,0.463,0.463,0.463,0.463,0.463,0.463,0.463,0.463,0.463,0.464,0.464,0.464,0.464,0.464,0.465,0.465,0.465,0.465,0.466,0.466,0.466,0.467,0.467,0.467,0.467,0.467,0.468,0.468,0.468,0.468,0.468,0.468,0.468,0.469,0.469,0.47,0.47,0.47,0.471,0.471,0.471,0.471,0.471,0.471,0.471,0.471,0.471,0.471,0.471,0.472,0.472,0.472,0.473,0.473,0.473,0.473,0.474,0.474,0.474,0.474,0.474,0.475,0.476,0.477,0.478,0.478,0.48,0.48,0.48,0.481,0.481,0.481,0.481,0.48,0.48,0.48,0.479,0.479,0.478,0.478,0.478,0.477,0.477,0.477,0.477,0.477,0.477,0.477,0.477,0.477,0.476,0.476,0.476,0.476,0.476,0.477,0.477,0.477,0.477,0.477,0.477,0.477,0.477,0.477,0.477,0.477,0.477,0.478,0.478,0.478,0.478,0.478,0.478,0.479,0.479,0.479,0.479,0.48,0.48,0.48,0.48,0.48,0.481,0.481,0.481,0.481,0.481,0.481,0.481,0.482,0.482,0.482,0.483,0.483,0.483,0.483,0.483,0.484,0.484,0.484,0.484,0.484,0.485,0.485,0.485,0.485,0.486,0.486,0.486,0.487,0.487,0.488,0.488,0.488,0.489,0.489,0.489,0.49,0.49,0.49,0.491,0.491,0.491,0.491,0.491,0.491,0.492,0.492,0.492,0.492,0.493,0.493,0.493,0.494,0.494,0.494,0.495,0.495,0.495,0.495,0.495,0.495,0.495,0.495,0.495,0.495,0.495,0.495,0.495,0.495,0.495,0.495,0.495,0.496,0.496
0.757,0.758,0.76,0.761,0.762,0.763,0.764,0.765,0.766,0.765,0.765,0.765,0.766,0.766,0.765,0.766,0.765,0.765,0.764,0.765,0.765,0.765,0,0,0,0,0,0,0,0,0,0,0,0,0,0,0,0,0,0,0,0.445,0.446,0.446,0.446,0.446,0.446,0.446,0.446,0.446,0.446,0.446,0.446,0.446,0.446,0.446,0.447,0.447,0.447,0.447,0.448,0.448,0.448,0.448,0.448,0.449,0.449,0.449,0.449,0.449,0.45,0.45,0.45,0.45,0.45,0.451,0.451,0.451,0.452,0.452,0.452,0.452,0.452,0.453,0.453,0.453,0.453,0.453,0.453,0.453,0.454,0.454,0.454,0.454,0.454,0.454,0.455,0.455,0.455,0.455,0.455,0.455,0.455,0.455,0.456,0.456,0.456,0.456,0.456,0.457,0.457,0.457,0.457,0.457,0.457,0.457,0.457,0.456,0.456,0.455,0,0,0,0,0,0,0,0,0.423,0.421,0.42,0.42,0.419,0.419,0.419,0.418,0.418,0.418,0.418,0.418,0.419,0.419,0.419,0.419,0.419,0.419,0.419,0.419,0.419,0.42,0.42,0.42,0.421,0.421,0.421,0.421,0.421,0.421,0.421,0.421,0.421,0.421,0.421,0.422,0.422,0.422,0.422,0.422,0.422,0.423,0.423,0.423,0.423,0.424,0.424,0.424,0.425,0.425,0.425,0.425,0.425,0.426,0.426,0.426,0.426,0.426,0.426,0.427,0.427,0.427,0.427,0.427,0.428,0.428,0.428,0.428,0.428,0.428,0.428,0.429,0.429,0.43,0.43,0.43,0.431,0.431,0.431,0.431,0.431,0.431,0.431,0.431,0.431,0.431,0.431,0.431,0.432,0.432,0.432,0.432,0.432,0.432,0.432,0.433,0.433,0.434,0.434,0.434,0.435,0.435,0.436,0.436,0.436,0.436,0.436,0.436,0.436,0.436,0.436,0.436,0.437,0.437,0.437,0.438,0.438,0.438,0.438,0.438,0.439,0.439,0.439,0.439,0.439,0.439,0.439,0.439,0.439,0.439,0.44,0.44,0.44,0.441,0.441,0.441,0.441,0.442,0.442,0.442,0.442,0.443,0.443,0.443,0.444,0.444,0.444,0.444,0.445,0.445,0.445,0.445,0.446,0.446,0.446,0.446,0.446,0.446,0.447,0.447,0.447,0.447,0.447,0.447,0.447,0.447,0.447,0.448,0.447,0.447,0.447,0.447,0.447,0.447,0.447,0.448,0.448,0.448,0.448,0.448,0.449,0.449,0.45,0.45,0.45,0.451,0.451,0.451,0.452,0.452,0.452,0.453,0.452,0.453,0.453,0.453,0.453,0.453,0.454,0.454,0.454,0.455,0.455,0.455,0.456,0.456,0.456,0.457,0.457,0.457,0.458,0.458,0.458,0.458,0.459,0.459,0.459,0.459,0.459,0.46,0.46,0.46,0.461,0.461,0.461,0.461,0.461,0.462,0.462,0.462,0.462,0.462,0.462,0.462,0.462,0.462,0.462,0.462,0.463,0.463,0.463,0.463,0.464,0.464,0.464,0.464,0.465,0.465,0.466,0.466,0.466,0.466,0.466,0.466,0.466,0.467,0.467,0.467,0.467,0.467,0.468,0.468,0.469,0.469,0.469,0.469,0.47,0.47,0.47,0.47,0.47,0.47,0.47,0.47,0.47,0.47,0.47,0.471,0.471,0.471,0.471,0.472,0.472,0.473,0.473,0.473,0.473,0.473,0.474,0.475,0.475,0.477,0.477,0.478,0.478,0.479,0.48,0.48,0.48,0.479,0.479,0.479,0.478,0.478,0.478,0.477,0.477,0.477,0.476,0.476,0.476,0.476,0.476,0.475,0.475,0.475,0.475,0.475,0.475,0.475,0.475,0.475,0.475,0.475,0.475,0.475,0.475,0.475,0.476,0.476,0.476,0.476,0.476,0.476,0.476,0.477,0.477,0.477,0.477,0.477,0.477,0.477,0.478,0.478,0.478,0.478,0.479,0.479,0.479,0.479,0.48,0.48,0.48,0.48,0.48,0.48,0.48,0.481,0.481,0.481,0.481,0.481,0.482,0.482,0.482,0.483,0.483,0.483,0.483,0.483,0.483,0.484,0.484,0.484,0.485,0.485,0.486,0.486,0.486,0.487,0.487,0.488,0.488,0.488,0.488,0.489,0.489,0.489,0.49,0.49,0.49,0.49,0.49,0.49,0.491,0.491,0.491,0.491,0.492,0.492,0.493,0.493,0.493,0.493,0.493,0.493,0.493,0.493,0.493,0.494,0.494,0.494,0.494,0.494,0.494,0.494,0.494,0.494,0.494,0.494,0.495,0.495
0.757,0.758,0.76,0.761,0.763,0.763,0.764,0.765,0.765,0.765,0.765,0.765,0.765,0.765,0.764,0.765,0.764,0.764,0.764,0.764,0.764,0.764,0,0,0,0,0,0,0,0,0,0,0,0,0,0,0,0,0,0,0,0,0.444,0.444,0.445,0.445,0.445,0.445,0.445,0.445,0.445,0.445,0.445,0.445,0.445,0.445,0.445,0.446,0.446,0.446,0.446,0.447,0.447,0.447,0.447,0.447,0.448,0.448,0.448,0.448,0.448,0.449,0.449,0.449,0.449,0.45,0.45,0.45,0.45,0.451,0.451,0.451,0.451,0.452,0.452,0.452,0.452,0.452,0.452,0.452,0.453,0.453,0.453,0.453,0.453,0.453,0.453,0.454,0.454,0.454,0.454,0.454,0.454,0.454,0.455,0.455,0.455,0.455,0.455,0.456,0.456,0.456,0.456,0.456,0.456,0.456,0.455,0.455,0.455,0.454,0.452,0.451,0,0,0,0.431,0,0,0.422,0.421,0.419,0.419,0.419,0.418,0.418,0.417,0.417,0.417,0.417,0.418,0.418,0.418,0.418,0.418,0.418,0.419,0.419,0.419,0.419,0.419,0.419,0.419,0.419,0.419,0.42,0.42,0.42,0.42,0.42,0.42,0.42,0.42,0.421,0.421,0.421,0.421,0.421,0.421,0.421,0.421,0.422,0.422,0.422,0.423,0.423,0.423,0.423,0.424,0.424,0.424,0.425,0.425,0.425,0.425,0.425,0.425,0.426,0.426,0.426,0.426,0.426,0.426,0.426,0.426,0.427,0.427,0.427,0.427,0.428,0.428,0.428,0.429,0.429,0.429,0.43,0.43,0.43,0.43,0.43,0.43,0.43,0.43,0.43,0.43,0.43,0.431,0.431,0.431,0.431,0.431,0.431,0.431,0.431,0.431,0.431,0.432,0.432,0.433,0.433,0.434,0.434,0.434,0.434,0.434,0.434,0.434,0.435,0.435,0.435,0.435,0.435,0.436,0.436,0.436,0.437,0.437,0.437,0.437,0.438,0.438,0.438,0.438,0.438,0.438,0.438,0.438,0.438,0.438,0.439,0.439,0.439,0.439,0.44,0.44,0.44,0.441,0.441,0.442,0.442,0.442,0.442,0.442,0.443,0.443,0.443,0.443,0.444,0.444,0.444,0.444,0.445,0.445,0.446,0.446,0.446,0.446,0.446,0.446,0.446,0.446,0.446,0.446,0.446,0.446,0.446,0.446,0.446,0.446,0.446,0.446,0.446,0.446,0.446,0.446,0.447,0.447,0.447,0.447,0.447,0.448,0.448,0.448,0.449,0.449,0.45,0.45,0.45,0.451,0.451,0.451,0.451,0.451,0.452,0.452,0.452,0.452,0.453,0.453,0.453,0.454,0.454,0.454,0.455,0.455,0.455,0.456,0.456,0.456,0.456,0.457,0.457,0.457,0.457,0.457,0.458,0.458,0.458,0.458,0.458,0.459,0.459,0.459,0.46,0.46,0.46,0.46,0.461,0.461,0.461,0.461,0.461,0.461,0.461,0.461,0.461,0.461,0.461,0.461,0.462,0.462,0.463,0.463,0.463,0.464,0.464,0.464,0.464,0.465,0.465,0.465,0.465,0.465,0.465,0.465,0.466,0.466,0.466,0.466,0.466,0.467,0.467,0.468,0.468,0.468,0.468,0.469,0.469,0.469,0.469,0.469,0.469,0.469,0.469,0.469,0.469,0.47,0.47,0.47,0.47,0.471,0.471,0.471,0.471,0.472,0.472,0.472,0.473,0.474,0.475,0.475,0.476,0.477,0.477,0.478,0.479,0.479,0.479,0.478,0.478,0.478,0.477,0.477,0.477,0.476,0.476,0.475,0.475,0.475,0.475,0.474,0.474,0.474,0.474,0.474,0.474,0.474,0.474,0.474,0.474,0.474,0.474,0.474,0.474,0.474,0.474,0.475,0.475,0.474,0.475,0.475,0.475,0.475,0.475,0.475,0.475,0.475,0.475,0.475,0.476,0.476,0.476,0.477,0.477,0.477,0.477,0.477,0.478,0.478,0.478,0.478,0.478,0.478,0.479,0.479,0.479,0.48,0.48,0.48,0.48,0.48,0.48,0.481,0.481,0.481,0.481,0.481,0.482,0.482,0.482,0.482,0.483,0.483,0.483,0.484,0.484,0.484,0.485,0.485,0.486,0.486,0.486,0.487,0.487,0.488,0.488,0.488,0.488,0.488,0.489,0.489,0.489,0.489,0.49,0.49,0.49,0.491,0.491,0.491,0.491,0.492,0.492,0.492,0.492,0.492,0.492,0.492,0.492,0.492,0.492,0.493,0.493,0.493,0.493,0.493,0.493,0.493,0.493,0.493,0.493,0.494
0.757,0.758,0.76,0.761,0.762,0.763,0.763,0.764,0.764,0.764,0.764,0.764,0.764,0.763,0.764,0.763,0.763,0.762,0.763,0.763,0.764,0.763,0,0,0,0,0,0,0,0,0,0,0,0,0,0,0,0,0,0,0,0.442,0.443,0.443,0.443,0.444,0.443,0.444,0.444,0.444,0.444,0.444,0.444,0.444,0.444,0.444,0.444,0.444,0.445,0.445,0.446,0.446,0.446,0.446,0.446,0.446,0.447,0.447,0.447,0.447,0.447,0.448,0.448,0.448,0.448,0.448,0.449,0.449,0.449,0.45,0.45,0.45,0.45,0.45,0.45,0.451,0.451,0.451,0.451,0.451,0.451,0.452,0.452,0.452,0.452,0.452,0.452,0.452,0.453,0.453,0.453,0.453,0.453,0.453,0.454,0.454,0.454,0.454,0.454,0.454,0.454,0.455,0.455,0.455,0.455,0.455,0.455,0.455,0.454,0.454,0.452,0,0,0,0,0,0,0,0,0,0.419,0.418,0.418,0.417,0.417,0.416,0.416,0.416,0.416,0.417,0.417,0.417,0.417,0.417,0.417,0.418,0.417,0.417,0.417,0.418,0.418,0.418,0.418,0.419,0.419,0.419,0.419,0.419,0.419,0.419,0.419,0.419,0.419,0.42,0.42,0.42,0.42,0.42,0.42,0.42,0.421,0.421,0.421,0.421,0.421,0.422,0.422,0.423,0.423,0.423,0.423,0.424,0.424,0.424,0.424,0.424,0.425,0.425,0.425,0.425,0.425,0.425,0.425,0.425,0.425,0.425,0.426,0.426,0.426,0.427,0.427,0.427,0.428,0.428,0.428,0.429,0.429,0.429,0.429,0.429,0.429,0.429,0.429,0.429,0.429,0.429,0.43,0.429,0.43,0.43,0.429,0.429,0.43,0.43,0.43,0.431,0.431,0.431,0.432,0.432,0.433,0.433,0.433,0.433,0.433,0.433,0.434,0.434,0.434,0.434,0.434,0.435,0.435,0.435,0.435,0.436,0.436,0.436,0.436,0.437,0.436,0.437,0.437,0.437,0.437,0.437,0.437,0.437,0.438,0.438,0.438,0.439,0.439,0.439,0.439,0.44,0.44,0.44,0.441,0.441,0.441,0.442,0.442,0.442,0.442,0.443,0.443,0.443,0.444,0.443,0.444,0.444,0.445,0.445,0.445,0.445,0.445,0.445,0.445,0.446,0.446,0.446,0.446,0.446,0.445,0.446,0.445,0.445,0.445,0.445,0.445,0.445,0.445,0.445,0.446,0.446,0.446,0.446,0.446,0.446,0.447,0.447,0.447,0.448,0.448,0.448,0.449,0.449,0.449,0.45,0.45,0.45,0.45,0.451,0.451,0.451,0.451,0.452,0.452,0.453,0.453,0.453,0.454,0.454,0.454,0.454,0.455,0.455,0.455,0.455,0.456,0.456,0.456,0.456,0.456,0.456,0.457,0.457,0.457,0.457,0.458,0.458,0.458,0.458,0.458,0.459,0.459,0.459,0.459,0.46,0.46,0.46,0.46,0.46,0.46,0.46,0.46,0.46,0.461,0.461,0.461,0.462,0.462,0.462,0.463,0.463,0.463,0.463,0.463,0.464,0.464,0.464,0.464,0.464,0.464,0.464,0.465,0.465,0.465,0.466,0.466,0.466,0.466,0.467,0.467,0.467,0.468,0.468,0.468,0.468,0.468,0.468,0.468,0.468,0.468,0.469,0.469,0.469,0.469,0.47,0.47,0.47,0.47,0.471,0.471,0.471,0.472,0.473,0.473,0.474,0.475,0.476,0.477,0.477,0.478,0.478,0.478,0.477,0.477,0.477,0.477,0.476,0.475,0.475,0.475,0.474,0.474,0.474,0.473,0.473,0.473,0.473,0.473,0.473,0.473,0.473,0.473,0.473,0.473,0.473,0.473,0.473,0.473,0.473,0.473,0.473,0.474,0.473,0.473,0.473,0.474,0.474,0.474,0.474,0.474,0.474,0.474,0.474,0.474,0.475,0.475,0.475,0.475,0.475,0.476,0.476,0.476,0.477,0.477,0.477,0.477,0.477,0.477,0.478,0.478,0.478,0.478,0.478,0.479,0.479,0.479,0.48,0.48,0.48,0.48,0.48,0.48,0.481,0.481,0.481,0.481,0.481,0.482,0.482,0.483,0.483,0.483,0.484,0.484,0.484,0.485,0.485,0.486,0.486,0.486,0.487,0.487,0.487,0.488,0.488,0.488,0.488,0.488,0.489,0.49,0.49,0.49,0.49,0.491,0.491,0.491,0.491,0.491,0.491,0.491,0.491,0.491,0.491,0.491,0.491,0.491,0.491,0.491,0.492,0.492,0.492,0.492,0.492,0.493,0.493
0.756,0.757,0.759,0.76,0.761,0.761,0.762,0.763,0.762,0.762,0.762,0.762,0.762,0.762,0.762,0.762,0.761,0.761,0.761,0.762,0,0,0,0,0,0,0,0,0,0,0,0,0,0,0,0,0,0,0,0.441,0.441,0.441,0.441,0.442,0.442,0.442,0.442,0.442,0.442,0.442,0.442,0.443,0.443,0.443,0.443,0.443,0.443,0.443,0.444,0.444,0.444,0.445,0.445,0.445,0.445,0.446,0.446,0.446,0.446,0.446,0.446,0.447,0.447,0.447,0.447,0.447,0.448,0.448,0.448,0.448,0.449,0.449,0.449,0.449,0.449,0.45,0.45,0.45,0.45,0.45,0.45,0.45,0.451,0.451,0.451,0.451,0.451,0.452,0.452,0.452,0.452,0.452,0.452,0.452,0.453,0.453,0.453,0.453,0.453,0.453,0.453,0.453,0.454,0.454,0.454,0.454,0.454,0.453,0.453,0.452,0.451,0,0,0,0,0,0,0.423,0,0.419,0.418,0.417,0.417,0.416,0.416,0.415,0.415,0.415,0.415,0.415,0.416,0.416,0.416,0.416,0.416,0.417,0.417,0.417,0.417,0.417,0.417,0.417,0.417,0.417,0.418,0.418,0.418,0.418,0.418,0.418,0.418,0.418,0.419,0.419,0.419,0.419,0.419,0.419,0.419,0.419,0.419,0.419,0.42,0.42,0.42,0.421,0.421,0.421,0.422,0.422,0.422,0.423,0.423,0.423,0.423,0.423,0.424,0.424,0.424,0.424,0.424,0.424,0.424,0.424,0.424,0.425,0.425,0.425,0.425,0.425,0.426,0.426,0.426,0.427,0.427,0.427,0.427,0.427,0.427,0.427,0.428,0.428,0.428,0.428,0.428,0.428,0.428,0.428,0.428,0.428,0.428,0.428,0.428,0.428,0.429,0.429,0.429,0.43,0.43,0.431,0.431,0.431,0.431,0.432,0.432,0.432,0.432,0.432,0.432,0.433,0.433,0.433,0.433,0.434,0.434,0.434,0.435,0.435,0.435,0.435,0.435,0.435,0.436,0.436,0.436,0.436,0.436,0.436,0.437,0.437,0.437,0.438,0.438,0.438,0.438,0.439,0.439,0.439,0.439,0.44,0.44,0.441,0.441,0.441,0.441,0.442,0.442,0.442,0.443,0.443,0.443,0.443,0.444,0.444,0.444,0.444,0.444,0.444,0.445,0.445,0.445,0.445,0.445,0.444,0.444,0.444,0.444,0.444,0.444,0.444,0.444,0.444,0.444,0.444,0.444,0.444,0.445,0.445,0.445,0.446,0.446,0.446,0.446,0.446,0.447,0.447,0.448,0.448,0.448,0.448,0.448,0.449,0.449,0.45,0.45,0.45,0.451,0.451,0.451,0.452,0.452,0.452,0.453,0.453,0.453,0.453,0.454,0.454,0.454,0.454,0.454,0.454,0.454,0.455,0.455,0.455,0.455,0.455,0.455,0.456,0.456,0.456,0.456,0.457,0.457,0.457,0.457,0.458,0.458,0.458,0.458,0.458,0.458,0.458,0.459,0.459,0.459,0.46,0.46,0.46,0.461,0.461,0.461,0.461,0.462,0.462,0.462,0.462,0.462,0.462,0.462,0.463,0.463,0.463,0.463,0.463,0.463,0.463,0.464,0.464,0.464,0.465,0.465,0.466,0.466,0.466,0.466,0.466,0.467,0.467,0.466,0.466,0.467,0.467,0.467,0.468,0.468,0.468,0.468,0.469,0.469,0.469,0.469,0.47,0.47,0.47,0.47,0.471,0.472,0.473,0.474,0.475,0.476,0.477,0.477,0.477,0.477,0.477,0.476,0.476,0.475,0.475,0.474,0.474,0.474,0.473,0.473,0.472,0.472,0.472,0.472,0.472,0.471,0.471,0.471,0.471,0.471,0.471,0.471,0.471,0.472,0.472,0.472,0.472,0.472,0.472,0.472,0.472,0.472,0.472,0.472,0.473,0.473,0.473,0.473,0.473,0.473,0.473,0.473,0.473,0.473,0.474,0.474,0.474,0.474,0.475,0.475,0.475,0.475,0.475,0.476,0.476,0.476,0.477,0.477,0.477,0.477,0.477,0.478,0.478,0.478,0.478,0.478,0.478,0.479,0.479,0.479,0.479,0.48,0.48,0.48,0.48,0.481,0.481,0.481,0.481,0.482,0.482,0.483,0.483,0.483,0.484,0.484,0.484,0.485,0.485,0.486,0.486,0.486,0.486,0.487,0.487,0.487,0.488,0.488,0.489,0.489,0.489,0.49,0.49,0.49,0.49,0.49,0.49,0.49,0.49,0.49,0.49,0.49,0.49,0.49,0.49,0.49,0.491,0.491,0.491,0.491,0.491,0.491,0.491
0.755,0.757,0.757,0.758,0.759,0.76,0.76,0.761,0.76,0.761,0.76,0.76,0.76,0.76,0.76,0.761,0.76,0.76,0.76,0,0,0,0,0,0,0,0,0,0,0,0,0,0,0,0,0,0,0,0.439,0.439,0.44,0.44,0.44,0.44,0.441,0.441,0.441,0.441,0.441,0.441,0.442,0.442,0.442,0.442,0.442,0.442,0.442,0.443,0.443,0.443,0.443,0.444,0.444,0.444,0.444,0.444,0.445,0.445,0.445,0.445,0.446,0.446,0.446,0.446,0.446,0.446,0.447,0.447,0.447,0.447,0.448,0.448,0.448,0.448,0.448,0.448,0.449,0.449,0.449,0.449,0.449,0.449,0.449,0.45,0.45,0.45,0.45,0.451,0.451,0.451,0.451,0.451,0.451,0.451,0.451,0.452,0.452,0.452,0.452,0.452,0.452,0.452,0.452,0.453,0.453,0.453,0.452,0.452,0.452,0.451,0.449,0.448,0.447,0.444,0.437,0,0,0.422,0.42,0.419,0.418,0.417,0.416,0.415,0.415,0.415,0.414,0.414,0.414,0.414,0.414,0.415,0.415,0.415,0.415,0.415,0.415,0.415,0.415,0.416,0.416,0.416,0.416,0.417,0.417,0.417,0.417,0.417,0.417,0.417,0.417,0.417,0.417,0.417,0.417,0.417,0.417,0.418,0.418,0.418,0.418,0.418,0.418,0.419,0.419,0.419,0.42,0.42,0.42,0.421,0.421,0.421,0.421,0.422,0.422,0.422,0.423,0.423,0.423,0.423,0.423,0.423,0.423,0.423,0.423,0.423,0.424,0.424,0.424,0.425,0.425,0.425,0.425,0.426,0.426,0.426,0.426,0.426,0.426,0.426,0.426,0.426,0.427,0.427,0.427,0.427,0.427,0.427,0.427,0.427,0.427,0.427,0.427,0.427,0.428,0.428,0.428,0.428,0.429,0.429,0.43,0.43,0.43,0.43,0.43,0.431,0.431,0.431,0.431,0.431,0.431,0.431,0.431,0.432,0.432,0.433,0.433,0.434,0.434,0.434,0.434,0.434,0.435,0.435,0.435,0.435,0.435,0.435,0.436,0.436,0.436,0.436,0.436,0.436,0.437,0.437,0.438,0.438,0.439,0.439,0.439,0.439,0.44,0.44,0.44,0.441,0.441,0.441,0.442,0.442,0.442,0.442,0.443,0.443,0.443,0.443,0.443,0.443,0.444,0.444,0.444,0.444,0.444,0.443,0.443,0.443,0.443,0.443,0.443,0.443,0.443,0.443,0.443,0.443,0.443,0.444,0.444,0.444,0.444,0.445,0.445,0.445,0.445,0.446,0.446,0.446,0.446,0.446,0.447,0.447,0.447,0.448,0.448,0.448,0.449,0.449,0.45,0.45,0.45,0.451,0.451,0.451,0.452,0.452,0.452,0.452,0.452,0.453,0.453,0.453,0.453,0.453,0.453,0.453,0.453,0.454,0.454,0.454,0.454,0.454,0.455,0.455,0.455,0.455,0.456,0.456,0.456,0.456,0.456,0.457,0.457,0.457,0.457,0.457,0.458,0.458,0.458,0.458,0.459,0.459,0.46,0.46,0.46,0.461,0.461,0.461,0.461,0.461,0.461,0.461,0.462,0.462,0.462,0.462,0.462,0.462,0.462,0.462,0.463,0.463,0.463,0.464,0.464,0.464,0.465,0.465,0.465,0.466,0.466,0.466,0.466,0.466,0.466,0.466,0.466,0.466,0.466,0.467,0.467,0.468,0.468,0.468,0.468,0.468,0.468,0.469,0.469,0.47,0.471,0.472,0.473,0.474,0.475,0.475,0.476,0.476,0.476,0.476,0.475,0.475,0.475,0.474,0.473,0.473,0.473,0.472,0.471,0.471,0.471,0.471,0.47,0.47,0.47,0.47,0.47,0.47,0.47,0.47,0.47,0.47,0.47,0.47,0.471,0.471,0.471,0.471,0.471,0.471,0.471,0.471,0.471,0.471,0.471,0.471,0.471,0.471,0.471,0.471,0.472,0.472,0.472,0.473,0.473,0.473,0.473,0.474,0.474,0.474,0.474,0.474,0.474,0.475,0.475,0.475,0.475,0.475,0.476,0.476,0.476,0.477,0.477,0.477,0.477,0.477,0.478,0.478,0.478,0.478,0.478,0.478,0.478,0.479,0.479,0.479,0.48,0.48,0.48,0.481,0.481,0.481,0.482,0.482,0.483,0.483,0.483,0.484,0.484,0.484,0.485,0.485,0.486,0.486,0.486,0.487,0.487,0.488,0.488,0.488,0.488,0.489,0.489,0.489,0.489,0.489,0.489,0.489,0.489,0.489,0.489,0.489,0.489,0.489,0.49,0.49,0.49,0.49,0.49,0.49,0.49,0.49
0.754,0.754,0.755,0.756,0.757,0.758,0.758,0.758,0.758,0.758,0.759,0.758,0.759,0.759,0.759,0.759,0.76,0,0,0,0,0,0,0,0,0,0,0,0,0,0,0,0,0,0,0,0.438,0.438,0.439,0.439,0.439,0.439,0.439,0.439,0.439,0.44,0.439,0.44,0.44,0.44,0.44,0.44,0.441,0.441,0.441,0.441,0.441,0.442,0.442,0.442,0.442,0.443,0.443,0.443,0.443,0.444,0.444,0.444,0.444,0.445,0.445,0.445,0.445,0.445,0.445,0.445,0.446,0.446,0.446,0.446,0.446,0.447,0.447,0.447,0.447,0.447,0.448,0.448,0.448,0.448,0.448,0.448,0.448,0.449,0.449,0.449,0.449,0.449,0.45,0.45,0.45,0.45,0.45,0.45,0.451,0.451,0.451,0.451,0.451,0.451,0.451,0.451,0.451,0.452,0.451,0.452,0,0.451,0.45,0.449,0.448,0.447,0.446,0,0.437,0,0,0.423,0.421,0.419,0.417,0.417,0.416,0.415,0.415,0.413,0.413,0.413,0.413,0.413,0.413,0,0.413,0.413,0.414,0.414,0.414,0.414,0.415,0.415,0.415,0.415,0.415,0.415,0.416,0.416,0.416,0.416,0.416,0.416,0.416,0.417,0.416,0.416,0.416,0.416,0.416,0.416,0.417,0.417,0.417,0.417,0.417,0.417,0.418,0.418,0.419,0.419,0.419,0.42,0.42,0.421,0.421,0.421,0.421,0.422,0.422,0.422,0.423,0.423,0.423,0.423,0.422,0.422,0.422,0.423,0.423,0.423,0.423,0.423,0.424,0.424,0.424,0.425,0.425,0.425,0.425,0.425,0.425,0.425,0.425,0.425,0.425,0.426,0.426,0.426,0.426,0.426,0.426,0.426,0.426,0.426,0.426,0.426,0.426,0.426,0.427,0.427,0.428,0.428,0.428,0.429,0.429,0.429,0.429,0.429,0.429,0.429,0.43,0.43,0.43,0.43,0.43,0.43,0.431,0.431,0.432,0.432,0.432,0.433,0.433,0.433,0.434,0.434,0.434,0.434,0.434,0.434,0.434,0.435,0.435,0.435,0.435,0.435,0.435,0.436,0.436,0.437,0.437,0.438,0.438,0.438,0.439,0.439,0.439,0.439,0.44,0.44,0.44,0.44,0.441,0.441,0.441,0.441,0.442,0.442,0.442,0.442,0.442,0.443,0.443,0.442,0.443,0.442,0.442,0.442,0.442,0.442,0.442,0.442,0.442,0.442,0.442,0.442,0.443,0.443,0.443,0.443,0.444,0.444,0.444,0.444,0.444,0.444,0.445,0.445,0.445,0.445,0.446,0.446,0.446,0.446,0.447,0.447,0.448,0.448,0.448,0.449,0.449,0.45,0.45,0.45,0.45,0.451,0.451,0.451,0.451,0.452,0.452,0.452,0.452,0.452,0.452,0.452,0.452,0.453,0.453,0.453,0.453,0.453,0.453,0.454,0.454,0.454,0.454,0.455,0.455,0.455,0.455,0.456,0.456,0.456,0.456,0.456,0.457,0.457,0.457,0.457,0.458,0.458,0.458,0.459,0.459,0.459,0.46,0.46,0.46,0.46,0.46,0.46,0.46,0.46,0.46,0.46,0.46,0.461,0.461,0.461,0.461,0.462,0.462,0.462,0.462,0.463,0.463,0.464,0.464,0.464,0.465,0.465,0.465,0.465,0.465,0.465,0.465,0.465,0.465,0.466,0.466,0.466,0.466,0.466,0.466,0.467,0.467,0.468,0.468,0.469,0.47,0.471,0.473,0.473,0.474,0.475,0.475,0.475,0.475,0.475,0.475,0.474,0.474,0.473,0.472,0.472,0.471,0.471,0.47,0.47,0.47,0.47,0.469,0.469,0.469,0.469,0.469,0.469,0.469,0.469,0.469,0.469,0.469,0.469,0.469,0.469,0.47,0.47,0.47,0.47,0.47,0.47,0.47,0.47,0.47,0.47,0.47,0.47,0.47,0.47,0.471,0.471,0.471,0.471,0.472,0.472,0.472,0.473,0.473,0.473,0.473,0.473,0.473,0.474,0.474,0.474,0.474,0.474,0.475,0.475,0.475,0.475,0.475,0.476,0.476,0.476,0.476,0.477,0.477,0.477,0.477,0.477,0.477,0.477,0.478,0.478,0.478,0.478,0.479,0.479,0.48,0.48,0.48,0.481,0.481,0.482,0.482,0.482,0.483,0.483,0.483,0.484,0.484,0.485,0.485,0.486,0.486,0.486,0.487,0.487,0.487,0.487,0.488,0.488,0.488,0.488,0.488,0.488,0.488,0.488,0.488,0.488,0.488,0.488,0.488,0.489,0.489,0.489,0.489,0.489,0.489,0.489
0.753,0.753,0.753,0.754,0.754,0.755,0.755,0.756,0.756,0.756,0.756,0.756,0.756,0.757,0.757,0.758,0.758,0,0,0,0,0,0,0,0,0,0,0,0,0,0,0,0,0,0,0,0.438,0.438,0.438,0.438,0.438,0.438,0.438,0.438,0.438,0.438,0.438,0.439,0.439,0.439,0.439,0.439,0.439,0.44,0.44,0.44,0.44,0.441,0.441,0.441,0.441,0.442,0.442,0.442,0.442,0.442,0.443,0.443,0.443,0.443,0.444,0.444,0.444,0.444,0.444,0.444,0.445,0.445,0.445,0.445,0.446,0.446,0.446,0.446,0.446,0.446,0.446,0.447,0.447,0.447,0.447,0.447,0.447,0.448,0.448,0.448,0.448,0.448,0.448,0.449,0.449,0.449,0.449,0.449,0.449,0.45,0.45,0.45,0.45,0.45,0.45,0.45,0.45,0.45,0.45,0.45,0.45,0.45,0.449,0.448,0.447,0,0,0,0.437,0.431,0,0.424,0.421,0.418,0.417,0.416,0.415,0.414,0.414,0.413,0.412,0.412,0.412,0.412,0.412,0.412,0.412,0.412,0.413,0.413,0.413,0.413,0.413,0.414,0.414,0.414,0.415,0.415,0.415,0.415,0.415,0.415,0.415,0.415,0.415,0.416,0.415,0.415,0.415,0.415,0.415,0.415,0.415,0.415,0.416,0.416,0.416,0.417,0.417,0.417,0.418,0.418,0.418,0.419,0.419,0.42,0.42,0.42,0.421,0.421,0.421,0.421,0.421,0.421,0.421,0.421,0.421,0.421,0.421,0.421,0.421,0.422,0.422,0.422,0.423,0.423,0.423,0.423,0.423,0.423,0.424,0.424,0.424,0.424,0.424,0.424,0.424,0.425,0.425,0.425,0.425,0.425,0.425,0.425,0.425,0.425,0.425,0.425,0.425,0.425,0.426,0.426,0.427,0.427,0.427,0.428,0.428,0.428,0.428,0.428,0.428,0.428,0.428,0.428,0.428,0.428,0.429,0.429,0.429,0.43,0.43,0.431,0.431,0.431,0.432,0.432,0.433,0.433,0.433,0.433,0.433,0.434,0.434,0.434,0.434,0.434,0.434,0.434,0.434,0.435,0.435,0.435,0.436,0.436,0.437,0.437,0.437,0.438,0.438,0.438,0.439,0.439,0.439,0.439,0.439,0.44,0.44,0.44,0.44,0.44,0.44,0.441,0.441,0.441,0.441,0.441,0.441,0.441,0.441,0.441,0.441,0.441,0.441,0.441,0.441,0.441,0.441,0.441,0.442,0.442,0.442,0.442,0.442,0.443,0.443,0.443,0.443,0.443,0.443,0.443,0.444,0.444,0.444,0.445,0.445,0.446,0.446,0.446,0.447,0.447,0.447,0.448,0.448,0.448,0.449,0.449,0.449,0.45,0.45,0.45,0.45,0.45,0.45,0.45,0.451,0.451,0.451,0.451,0.451,0.451,0.451,0.452,0.452,0.452,0.452,0.452,0.453,0.453,0.453,0.454,0.454,0.454,0.454,0.454,0.455,0.455,0.455,0.455,0.455,0.456,0.456,0.456,0.456,0.457,0.457,0.458,0.458,0.458,0.458,0.458,0.458,0.459,0.459,0.459,0.459,0.459,0.459,0.459,0.46,0.46,0.46,0.46,0.46,0.46,0.461,0.461,0.461,0.461,0.462,0.462,0.463,0.463,0.463,0.463,0.464,0.464,0.464,0.464,0.464,0.464,0.464,0.465,0.465,0.465,0.465,0.465,0.465,0.466,0.466,0.466,0.467,0.468,0.469,0.47,0.471,0.473,0.473,0.474,0.475,0.475,0.475,0.474,0.474,0.474,0.473,0.472,0.471,0.471,0.47,0.47,0.47,0.469,0.469,0.469,0.468,0.468,0.468,0.468,0.468,0.468,0.468,0.468,0.468,0.468,0.468,0.468,0.468,0.468,0.468,0.469,0.469,0.468,0.469,0.469,0.469,0.469,0.469,0.469,0.469,0.469,0.469,0.469,0.47,0.47,0.47,0.47,0.47,0.471,0.471,0.471,0.471,0.471,0.472,0.472,0.472,0.473,0.473,0.473,0.473,0.473,0.473,0.474,0.474,0.474,0.474,0.475,0.475,0.475,0.475,0.475,0.475,0.475,0.476,0.476,0.476,0.476,0.476,0.477,0.477,0.477,0.478,0.478,0.478,0.479,0.479,0.48,0.48,0.48,0.481,0.481,0.481,0.482,0.482,0.483,0.483,0.483,0.484,0.484,0.484,0.485,0.485,0.485,0.486,0.486,0.486,0.486,0.486,0.486,0.486,0.487,0.487,0.487,0.487,0.487,0.487,0.488,0.488,0.488,0.488,0.488,0.488,0.488,0.488,0.488
0.751,0.751,0.752,0.753,0.753,0.753,0.753,0.753,0.753,0.753,0.753,0.754,0.755,0.755,0.756,0.757,0,0,0,0,0,0,0,0,0,0,0,0,0,0,0,0,0,0,0,0.437,0.437,0.437,0.437,0.437,0.437,0.437,0.437,0.437,0.437,0.437,0.437,0.438,0.438,0.438,0.438,0.438,0.438,0.439,0.439,0.439,0.44,0.44,0.44,0.44,0.44,0.441,0.441,0.441,0.441,0.441,0.441,0.442,0.442,0.442,0.442,0.443,0.443,0.443,0.443,0.443,0.444,0.444,0.444,0.444,0.444,0.445,0.445,0.445,0.445,0.445,0.446,0.446,0.446,0.446,0.446,0.446,0.446,0.446,0.447,0.447,0.447,0.447,0.448,0.448,0.448,0.448,0.448,0.448,0.449,0.449,0.449,0.449,0.449,0.449,0.449,0.449,0.449,0.449,0.449,0.449,0.45,0.449,0.448,0.447,0.446,0.446,0.445,0.442,0.437,0.432,0.427,0.424,0.421,0.418,0.417,0.416,0.415,0.414,0.413,0.412,0.412,0.411,0.411,0.41,0.411,0.411,0.411,0.411,0.411,0.412,0.412,0.412,0.412,0.413,0.413,0.413,0.413,0.414,0.414,0.414,0.414,0.415,0.415,0.415,0.415,0.415,0.415,0.414,0.414,0.414,0.414,0.414,0.414,0.414,0.415,0.415,0.415,0.415,0.416,0.416,0.417,0.417,0.418,0.418,0.418,0.419,0.419,0.42,0.42,0.42,0.42,0.421,0.421,0.421,0.421,0.421,0.42,0.42,0.42,0.42,0.42,0.42,0.421,0.421,0.421,0.421,0.422,0.422,0.422,0.422,0.422,0.422,0.422,0.422,0.423,0.423,0.423,0.423,0.423,0.424,0.424,0.424,0.424,0.424,0.424,0.424,0.424,0.424,0.424,0.425,0.425,0.425,0.426,0.426,0.426,0.427,0.427,0.427,0.427,0.428,0.428,0.428,0.428,0.428,0.428,0.428,0.428,0.428,0.428,0.428,0.429,0.429,0.43,0.43,0.431,0.431,0.431,0.432,0.432,0.432,0.432,0.432,0.432,0.433,0.433,0.433,0.433,0.433,0.434,0.434,0.434,0.434,0.435,0.435,0.436,0.436,0.436,0.436,0.436,0.437,0.437,0.437,0.438,0.438,0.438,0.438,0.439,0.439,0.439,0.439,0.439,0.439,0.44,0.44,0.44,0.44,0.44,0.44,0.44,0.44,0.44,0.44,0.44,0.44,0.44,0.44,0.44,0.44,0.441,0.441,0.441,0.441,0.441,0.442,0.441,0.442,0.442,0.442,0.442,0.442,0.442,0.443,0.443,0.443,0.444,0.444,0.445,0.445,0.446,0.446,0.446,0.446,0.447,0.447,0.447,0.448,0.448,0.448,0.449,0.449,0.449,0.449,0.449,0.449,0.449,0.449,0.45,0.45,0.45,0.45,0.45,0.45,0.451,0.451,0.451,0.451,0.451,0.452,0.452,0.452,0.453,0.453,0.453,0.453,0.454,0.454,0.454,0.454,0.454,0.454,0.455,0.455,0.455,0.455,0.456,0.456,0.456,0.457,0.457,0.457,0.457,0.457,0.457,0.457,0.457,0.458,0.458,0.458,0.458,0.458,0.458,0.458,0.458,0.458,0.459,0.459,0.46,0.46,0.461,0.461,0.462,0.462,0.462,0.462,0.462,0.462,0.463,0.463,0.463,0.463,0.463,0.463,0.464,0.464,0.464,0.464,0.464,0.465,0.465,0.465,0.466,0.467,0.468,0.469,0.471,0.472,0.473,0.474,0.474,0.474,0.474,0.474,0.474,0.473,0.472,0.471,0.471,0.47,0.469,0.469,0.469,0.468,0.468,0.468,0.467,0.467,0.467,0.467,0.467,0.467,0.467,0.467,0.467,0.467,0.467,0.467,0.467,0.467,0.467,0.467,0.467,0.467,0.467,0.467,0.467,0.467,0.468,0.468,0.468,0.468,0.468,0.468,0.468,0.469,0.469,0.469,0.47,0.47,0.47,0.47,0.47,0.471,0.471,0.471,0.471,0.471,0.471,0.472,0.472,0.472,0.472,0.473,0.473,0.473,0.473,0.474,0.474,0.474,0.474,0.474,0.474,0.475,0.475,0.475,0.475,0.475,0.475,0.475,0.475,0.476,0.476,0.477,0.477,0.477,0.478,0.478,0.478,0.479,0.479,0.48,0.48,0.48,0.481,0.481,0.481,0.482,0.482,0.483,0.483,0.483,0.484,0.484,0.484,0.484,0.484,0.484,0.484,0.485,0.485,0.485,0.485,0.486,0.486,0.486,0.486,0.486,0.486,0.487,0.487,0.487,0.487,0.487,0.488,0.488
0.749,0.749,0.749,0.75,0.75,0.751,0.751,0.751,0.751,0.752,0.753,0.753,0.753,0.755,0,0,0,0,0,0,0,0,0,0,0,0,0,0,0,0,0,0,0,0,0.435,0.435,0.435,0.436,0.436,0.436,0.436,0.436,0.436,0.436,0.436,0.436,0.436,0.436,0.436,0.437,0.437,0.437,0.438,0.438,0.438,0.439,0.439,0.439,0.439,0.439,0.439,0.44,0.44,0.44,0.44,0.44,0.44,0.441,0.441,0.441,0.441,0.442,0.442,0.442,0.442,0.442,0.443,0.443,0.443,0.443,0.443,0.444,0.444,0.444,0.444,0.444,0.444,0.445,0.445,0.445,0.445,0.445,0.446,0.446,0.446,0.446,0.446,0.446,0.446,0.446,0.447,0.447,0.447,0.447,0.448,0.448,0.448,0.448,0.448,0.448,0.448,0.448,0.448,0.448,0.448,0.448,0.449,0.448,0.447,0.447,0.446,0.445,0.444,0.442,0.437,0.432,0,0.424,0.421,0.418,0.417,0.416,0.415,0.413,0.413,0.412,0.411,0.41,0.41,0.41,0.41,0.41,0.41,0.41,0.41,0.41,0.411,0.411,0.411,0.412,0.412,0.412,0.413,0.413,0.413,0.413,0.413,0.413,0.413,0.414,0.414,0.414,0.413,0.413,0.413,0.413,0.413,0.413,0.413,0.413,0.413,0.414,0.414,0.414,0.415,0.415,0.416,0.416,0.417,0.417,0.417,0.418,0.419,0.419,0.419,0.419,0.419,0.42,0.42,0.42,0.42,0.419,0.419,0.419,0.419,0.419,0.419,0.419,0.419,0.42,0.42,0.42,0.42,0.421,0.421,0.421,0.421,0.421,0.421,0.421,0.421,0.421,0.422,0.422,0.422,0.422,0.423,0.423,0.423,0.423,0.423,0.423,0.423,0.423,0.423,0.424,0.424,0.424,0.425,0.425,0.425,0.426,0.426,0.426,0.426,0.426,0.426,0.426,0.426,0.427,0.426,0.426,0.427,0.427,0.427,0.428,0.428,0.428,0.428,0.429,0.429,0.43,0.43,0.431,0.431,0.431,0.431,0.431,0.431,0.431,0.432,0.432,0.432,0.432,0.432,0.433,0.433,0.433,0.434,0.434,0.434,0.434,0.434,0.434,0.435,0.435,0.435,0.436,0.436,0.436,0.436,0.436,0.437,0.437,0.437,0.437,0.438,0.438,0.438,0.439,0.439,0.439,0.439,0.439,0.439,0.439,0.439,0.439,0.439,0.439,0.439,0.439,0.439,0.439,0.44,0.44,0.44,0.44,0.44,0.44,0.44,0.44,0.44,0.441,0.441,0.441,0.441,0.441,0.442,0.442,0.443,0.443,0.443,0.444,0.444,0.445,0.445,0.446,0.446,0.446,0.446,0.447,0.447,0.447,0.447,0.448,0.448,0.448,0.448,0.448,0.448,0.448,0.448,0.448,0.449,0.449,0.449,0.449,0.449,0.45,0.45,0.45,0.45,0.45,0.451,0.451,0.451,0.452,0.452,0.452,0.452,0.453,0.453,0.453,0.453,0.453,0.453,0.454,0.454,0.455,0.455,0.455,0.455,0.455,0.456,0.456,0.456,0.456,0.456,0.456,0.456,0.456,0.456,0.457,0.457,0.457,0.457,0.457,0.457,0.457,0.457,0.458,0.458,0.459,0.459,0.46,0.46,0.461,0.461,0.461,0.461,0.461,0.461,0.461,0.461,0.462,0.462,0.462,0.462,0.463,0.463,0.463,0.463,0.463,0.464,0.464,0.465,0.466,0.467,0.469,0.47,0.471,0.472,0.473,0.474,0.474,0.473,0.473,0.473,0.472,0.471,0.47,0.47,0.469,0.469,0.468,0.468,0.467,0.466,0.466,0.466,0.466,0.466,0.466,0.466,0.466,0.466,0.466,0.466,0.466,0.466,0.466,0.465,0.465,0.465,0.465,0.466,0.466,0.466,0.466,0.466,0.466,0.466,0.466,0.466,0.466,0.467,0.467,0.467,0.468,0.468,0.468,0.468,0.469,0.469,0.469,0.469,0.47,0.469,0.47,0.47,0.47,0.47,0.47,0.471,0.471,0.471,0.471,0.471,0.472,0.472,0.473,0.473,0.473,0.473,0.473,0.473,0.474,0.474,0.474,0.474,0.474,0.474,0.474,0.475,0.475,0.475,0.475,0.476,0.476,0.477,0.477,0.477,0.477,0.478,0.478,0.478,0.479,0.479,0.48,0.48,0.48,0.481,0.481,0.481,0.482,0.482,0.482,0.482,0.483,0.483,0.483,0.483,0.483,0.483,0.484,0.484,0.484,0.484,0.485,0.485,0.485,0.485,0.486,0.486,0.486,0.486,0.486,0.486,0.486
0.746,0.747,0.747,0.747,0.747,0.748,0.748,0.749,0.749,0.75,0.751,0,0,0,0,0,0,0,0,0,0,0,0,0,0,0,0,0,0,0,0,0,0,0,0.434,0.434,0.434,0.434,0.434,0.434,0.435,0.435,0.435,0.435,0.435,0.435,0.435,0.435,0.435,0.436,0.436,0.436,0.437,0.437,0.437,0.437,0.438,0.438,0.438,0.439,0.439,0.439,0.439,0.439,0.439,0.439,0.44,0.44,0.44,0.44,0.44,0.441,0.441,0.441,0.441,0.441,0.442,0.442,0.442,0.442,0.443,0.443,0.443,0.443,0.443,0.444,0.444,0.444,0.443,0.444,0.444,0.444,0.444,0.444,0.444,0.445,0.445,0.445,0.445,0.446,0.446,0.446,0.446,0.446,0.446,0.447,0.447,0.447,0.447,0.447,0.447,0.447,0.447,0.447,0.447,0.447,0.447,0.447,0.446,0.446,0.445,0.444,0.444,0.441,0.437,0,0,0.424,0.421,0.419,0.417,0.416,0.414,0.413,0.412,0.411,0.41,0.41,0.409,0.409,0.409,0.409,0.409,0.409,0.409,0.409,0.41,0.41,0.41,0.411,0.411,0.411,0.412,0.412,0.412,0.412,0.412,0.412,0.413,0.413,0.413,0.413,0.413,0.413,0.412,0.412,0.412,0.412,0.412,0.412,0.413,0.413,0.413,0.413,0.414,0.415,0.415,0.415,0.416,0.416,0.417,0.417,0.418,0.418,0.418,0.419,0.419,0.419,0.419,0.419,0.419,0.418,0.418,0.418,0.418,0.418,0.418,0.418,0.418,0.419,0.419,0.419,0.419,0.419,0.419,0.419,0.419,0.419,0.42,0.42,0.42,0.42,0.42,0.421,0.421,0.421,0.421,0.421,0.422,0.422,0.422,0.422,0.422,0.423,0.423,0.423,0.423,0.423,0.424,0.424,0.424,0.425,0.425,0.425,0.425,0.425,0.425,0.425,0.425,0.425,0.425,0.425,0.426,0.426,0.426,0.427,0.427,0.427,0.427,0.428,0.428,0.429,0.429,0.429,0.43,0.43,0.43,0.43,0.43,0.43,0.43,0.431,0.431,0.431,0.431,0.431,0.432,0.432,0.432,0.433,0.433,0.433,0.433,0.433,0.433,0.434,0.434,0.434,0.434,0.434,0.435,0.435,0.435,0.435,0.436,0.436,0.436,0.437,0.437,0.438,0.438,0.438,0.438,0.438,0.439,0.439,0.439,0.439,0.439,0.439,0.439,0.439,0.439,0.439,0.439,0.439,0.439,0.439,0.439,0.439,0.439,0.439,0.439,0.439,0.44,0.44,0.44,0.44,0.441,0.441,0.441,0.442,0.442,0.442,0.443,0.444,0.444,0.444,0.445,0.445,0.445,0.445,0.446,0.446,0.446,0.446,0.447,0.447,0.447,0.447,0.447,0.447,0.447,0.447,0.447,0.448,0.448,0.448,0.448,0.448,0.448,0.448,0.449,0.449,0.449,0.45,0.45,0.45,0.451,0.451,0.451,0.451,0.452,0.452,0.452,0.452,0.452,0.452,0.453,0.453,0.454,0.454,0.454,0.454,0.455,0.455,0.455,0.455,0.455,0.455,0.455,0.455,0.455,0.456,0.455,0.456,0.455,0.455,0.455,0.456,0.456,0.456,0.457,0.457,0.458,0.458,0.459,0.459,0.46,0.46,0.46,0.46,0.46,0.46,0.46,0.46,0.461,0.461,0.461,0.461,0.461,0.462,0.462,0.462,0.463,0.463,0.464,0.465,0.466,0.468,0.469,0.47,0.471,0.472,0.473,0.473,0.473,0.473,0.472,0.471,0.471,0.47,0.469,0.468,0.468,0.467,0.466,0.466,0.466,0.465,0.465,0.465,0.465,0.465,0.465,0.464,0.464,0.464,0.464,0.464,0.464,0.464,0.464,0.464,0.464,0.464,0.464,0.464,0.464,0.464,0.465,0.465,0.465,0.465,0.465,0.465,0.465,0.466,0.466,0.466,0.466,0.467,0.467,0.467,0.468,0.468,0.468,0.468,0.468,0.469,0.469,0.469,0.469,0.469,0.47,0.47,0.47,0.47,0.47,0.471,0.471,0.471,0.472,0.472,0.472,0.472,0.473,0.473,0.473,0.473,0.473,0.473,0.473,0.473,0.474,0.474,0.474,0.474,0.475,0.475,0.475,0.476,0.476,0.476,0.477,0.477,0.477,0.478,0.478,0.478,0.479,0.479,0.48,0.48,0.48,0.48,0.48,0.481,0.481,0.481,0.481,0.481,0.481,0.481,0.482,0.482,0.482,0.483,0.483,0.483,0.484,0.484,0.484,0.484,0.485,0.485,0.485,0.485,0.485,0.486
0.744,0.744,0.744,0.744,0.744,0.745,0.746,0.746,0.746,0.747,0.749,0.749,0,0,0,0,0,0,0,0,0,0,0,0,0,0,0,0,0,0,0,0,0,0,0,0.432,0.433,0.433,0.434,0.434,0.434,0.434,0.434,0.434,0.434,0.434,0.434,0.434,0.434,0.435,0.435,0.435,0.435,0.436,0.436,0.436,0.437,0.437,0.437,0.437,0.438,0.438,0.438,0.439,0.438,0.438,0.439,0.439,0.439,0.439,0.439,0.44,0.44,0.44,0.441,0.44,0.441,0.441,0.441,0.441,0.441,0.442,0.442,0.442,0.442,0.442,0.442,0.442,0.442,0.442,0.442,0.443,0.443,0.443,0.443,0.443,0.443,0.444,0.444,0.444,0.444,0.445,0.445,0.445,0.445,0.446,0.446,0.446,0.446,0.446,0.446,0.446,0.446,0.446,0.446,0.446,0.446,0.446,0.446,0.445,0.445,0.444,0.443,0.441,0.437,0,0,0,0.422,0.419,0.417,0.416,0.415,0.413,0.412,0.411,0.41,0.409,0.409,0.408,0.408,0.408,0.408,0.408,0.408,0.409,0.409,0.409,0.409,0.41,0.41,0.41,0.41,0.411,0.411,0.411,0.411,0.412,0.412,0.412,0.412,0.412,0.412,0.412,0.412,0.412,0.412,0.411,0.411,0.411,0.412,0.412,0.412,0.413,0.413,0.413,0.414,0.415,0.415,0.415,0.416,0.416,0.417,0.417,0.417,0.417,0.418,0.418,0.418,0.418,0.418,0.417,0.417,0.417,0.417,0.417,0.417,0.417,0.418,0.418,0.418,0.418,0.418,0.418,0.418,0.418,0.418,0.418,0.418,0.419,0.419,0.419,0.419,0.419,0.42,0.42,0.42,0.42,0.421,0.421,0.421,0.421,0.421,0.421,0.422,0.422,0.422,0.422,0.422,0.423,0.423,0.423,0.423,0.423,0.424,0.424,0.424,0.424,0.424,0.424,0.425,0.425,0.425,0.425,0.425,0.425,0.426,0.426,0.426,0.427,0.427,0.427,0.428,0.428,0.428,0.429,0.429,0.429,0.429,0.429,0.429,0.429,0.429,0.43,0.43,0.43,0.43,0.431,0.431,0.431,0.431,0.432,0.432,0.432,0.432,0.433,0.433,0.433,0.433,0.433,0.434,0.433,0.434,0.434,0.434,0.434,0.435,0.435,0.436,0.436,0.437,0.437,0.437,0.437,0.437,0.438,0.438,0.438,0.438,0.438,0.438,0.438,0.438,0.438,0.438,0.438,0.438,0.438,0.438,0.438,0.438,0.438,0.438,0.439,0.439,0.439,0.439,0.439,0.439,0.44,0.44,0.44,0.441,0.441,0.442,0.442,0.443,0.443,0.443,0.444,0.444,0.444,0.445,0.445,0.445,0.446,0.446,0.446,0.446,0.446,0.446,0.446,0.446,0.446,0.446,0.446,0.446,0.447,0.447,0.447,0.447,0.447,0.447,0.448,0.448,0.448,0.449,0.449,0.449,0.45,0.45,0.45,0.45,0.45,0.45,0.451,0.451,0.451,0.451,0.452,0.452,0.452,0.453,0.453,0.453,0.453,0.453,0.453,0.453,0.454,0.454,0.454,0.454,0.454,0.454,0.454,0.454,0.454,0.454,0.454,0.454,0.455,0.455,0.456,0.456,0.457,0.457,0.458,0.458,0.458,0.458,0.458,0.458,0.458,0.458,0.458,0.459,0.459,0.46,0.46,0.46,0.46,0.461,0.461,0.461,0.462,0.463,0.464,0.465,0.467,0.469,0.47,0.471,0.471,0.472,0.473,0.473,0.472,0.471,0.471,0.47,0.469,0.468,0.468,0.467,0.466,0.466,0.465,0.465,0.465,0.464,0.464,0.464,0.464,0.463,0.463,0.463,0.463,0.463,0.463,0.463,0.463,0.463,0.463,0.463,0.463,0.463,0.463,0.463,0.463,0.463,0.464,0.464,0.464,0.464,0.464,0.464,0.465,0.465,0.465,0.465,0.465,0.466,0.466,0.466,0.467,0.467,0.467,0.467,0.467,0.468,0.468,0.468,0.468,0.469,0.469,0.469,0.469,0.47,0.47,0.47,0.47,0.471,0.471,0.471,0.471,0.471,0.471,0.472,0.472,0.472,0.472,0.472,0.473,0.473,0.473,0.473,0.474,0.474,0.474,0.474,0.474,0.475,0.475,0.475,0.476,0.476,0.476,0.477,0.477,0.477,0.478,0.478,0.478,0.478,0.479,0.479,0.479,0.479,0.479,0.479,0.48,0.48,0.48,0.48,0.481,0.481,0.481,0.482,0.482,0.482,0.483,0.483,0.483,0.484,0.484,0.484,0.484,0.484,0.484
0.742,0.743,0.742,0.743,0.742,0.743,0.743,0.743,0.743,0.744,0.745,0,0,0,0,0,0,0,0,0,0,0,0,0,0,0,0,0,0,0,0,0,0,0,0.431,0.432,0.431,0.432,0.432,0.433,0.433,0.433,0.433,0.433,0.433,0.433,0.433,0.434,0.434,0.434,0.434,0.434,0.434,0.434,0.435,0.435,0.435,0.436,0.436,0.437,0.437,0.437,0.437,0.438,0.437,0.437,0.438,0.438,0.438,0.438,0.439,0.439,0.439,0.439,0.44,0.44,0.44,0.44,0.44,0.44,0.44,0.44,0.441,0.441,0.441,0.441,0.441,0.441,0.441,0.441,0.441,0.441,0.441,0.441,0.442,0.442,0.442,0.442,0.442,0.443,0.443,0.443,0.443,0.444,0.444,0.444,0.445,0.445,0.445,0.445,0.445,0.446,0.446,0.445,0.446,0.446,0.446,0.445,0.445,0.444,0.444,0.443,0.443,0.44,0,0,0,0.426,0.422,0.419,0.417,0.416,0.415,0.413,0.412,0.411,0.41,0.409,0.408,0.408,0.407,0.407,0.407,0.407,0.407,0.407,0.408,0.408,0.408,0.409,0.409,0.409,0.41,0.41,0.41,0.41,0.41,0.411,0.411,0.411,0.411,0.411,0.411,0.411,0.411,0.411,0.411,0.41,0.41,0.41,0.411,0.411,0.412,0.412,0.412,0.413,0.413,0.414,0.414,0.414,0.415,0.415,0.415,0.416,0.416,0.416,0.416,0.417,0.417,0.417,0.417,0.416,0.416,0.416,0.416,0.416,0.416,0.416,0.417,0.417,0.417,0.417,0.417,0.417,0.417,0.417,0.417,0.417,0.417,0.418,0.418,0.418,0.418,0.419,0.419,0.419,0.419,0.419,0.42,0.42,0.42,0.42,0.42,0.42,0.421,0.421,0.421,0.421,0.421,0.422,0.422,0.422,0.422,0.422,0.423,0.423,0.423,0.423,0.423,0.423,0.423,0.424,0.424,0.424,0.425,0.425,0.425,0.425,0.425,0.425,0.426,0.426,0.427,0.427,0.427,0.428,0.428,0.428,0.428,0.428,0.428,0.428,0.428,0.428,0.429,0.429,0.429,0.429,0.43,0.43,0.43,0.431,0.431,0.431,0.431,0.431,0.431,0.431,0.431,0.432,0.432,0.432,0.432,0.433,0.433,0.433,0.433,0.434,0.434,0.434,0.435,0.436,0.436,0.436,0.436,0.436,0.436,0.436,0.437,0.437,0.437,0.437,0.437,0.437,0.437,0.437,0.437,0.437,0.437,0.437,0.437,0.437,0.437,0.438,0.438,0.438,0.438,0.438,0.439,0.439,0.439,0.439,0.44,0.44,0.44,0.441,0.442,0.442,0.442,0.442,0.443,0.443,0.444,0.444,0.444,0.445,0.445,0.445,0.445,0.445,0.445,0.445,0.445,0.445,0.445,0.445,0.445,0.445,0.445,0.446,0.446,0.446,0.446,0.446,0.446,0.447,0.447,0.448,0.448,0.448,0.449,0.449,0.449,0.449,0.449,0.449,0.45,0.45,0.45,0.45,0.451,0.451,0.451,0.451,0.452,0.452,0.452,0.452,0.452,0.452,0.453,0.453,0.453,0.453,0.453,0.453,0.453,0.453,0.453,0.453,0.453,0.453,0.454,0.454,0.455,0.455,0.456,0.456,0.456,0.456,0.457,0.457,0.457,0.457,0.457,0.457,0.457,0.458,0.458,0.458,0.459,0.459,0.46,0.46,0.46,0.46,0.462,0.463,0.464,0.466,0.468,0.469,0.47,0.471,0.472,0.472,0.472,0.471,0.471,0.47,0.469,0.469,0.468,0.467,0.466,0.466,0.465,0.465,0.464,0.464,0.464,0.463,0.463,0.463,0.462,0.462,0.462,0.462,0.462,0.462,0.462,0.462,0.462,0.462,0.462,0.462,0.462,0.462,0.462,0.462,0.462,0.462,0.463,0.463,0.463,0.463,0.463,0.464,0.464,0.464,0.464,0.464,0.465,0.465,0.465,0.466,0.466,0.466,0.466,0.466,0.467,0.467,0.467,0.467,0.467,0.468,0.468,0.468,0.468,0.468,0.469,0.469,0.469,0.47,0.47,0.47,0.47,0.47,0.471,0.471,0.471,0.471,0.471,0.471,0.472,0.472,0.472,0.473,0.473,0.473,0.473,0.474,0.474,0.474,0.474,0.475,0.475,0.475,0.475,0.475,0.476,0.476,0.477,0.477,0.477,0.477,0.477,0.477,0.477,0.478,0.478,0.478,0.478,0.478,0.479,0.479,0.48,0.48,0.48,0.481,0.481,0.481,0.482,0.482,0.482,0.483,0.483,0.483,0.483,0.483
