0.537,0.538,0.538,0.539,0.539,0.539,0.539,0.539,0.539,0.539,0.539,0.539,0.539,0.539,0.539,0.539,0.539,0.539,0.539,0.539,0.539,0.538,0.538,0.537,0.536,0.535,0.533,0.53,0.528,0.525,0.52,0.516,0.512,0.509,0.506,0.504,0.502,0.501,0.499,0.499,0.499,0.499,0.499,0.5,0.5,0.5,0.5,0.5,0.501,0.501,0.501,0.501,0.501,0.5,0.5,0.5,0.5,0.5,0.5,0.5,0.5,0.5,0.5,0.5,0.5,0.501,0.501,0.501,0.501,0.501,0.501,0.501,0.501,0.501,0.501,0.501,0.501,0.501,0.501,0.501,0.501,0.501,0.501,0.501,0.501,0.501,0.501,0.502,0.502,0.502,0.502,0.502,0.502,0.502,0.503,0.503,0.503,0.504,0.504,0.504,0.504,0.504,0.504,0.504,0.505,0.505,0.505,0.505,0.505,0.505,0.505,0.505,0.505,0.505,0.505,0.505,0.505,0.505,0.506,0.505,0.506,0.506,0.506,0.505,0.505,0.505,0.505,0.505,0.506,0.506,0.506,0.506,0.507,0.507,0.507,0.507,0.508,0.508,0.507,0.507,0.507,0.507,0.507,0.507,0.507,0.507,0.507,0.508,0.508,0.508,0.508,0.508,0.508,0.508,0.508,0.508,0.507,0.507,0.507,0.506,0.506,0.504,0.504,0.502,0.5,0.499,0.497,0.495,0.493,0.491,0.489,0.486,0.484,0.482,0.48,0.478,0.475,0.473,0.47,0.469,0.467,0.465,0.464,0.462,0.461,0.46,0.458,0.457,0.456,0.455,0.454,0.453,0.453,0.452,0.451,0.45,0.449,0.448,0.447,0.447,0.446,0.445,0.445,0.445,0.444,0.444,0.444,0.443,0.443,0.443,0.444,0.446,0.447,0.45,0,0.466,0,0,0.489,0.495,0.497,0.498,0.499,0.502,0.503,0.505,0.506,0.507,0.509,0.51,0.511,0.513,0.514,0.514,0.514,0.515,0.515,0.515,0.516,0.516,0.516,0.515,0.516,0.516,0.516,0.517,0.517,0.517,0.517,0.517,0.517,0.517,0.517,0.517,0.517,0.517,0.518,0.518,0.517,0.517,0.517,0.517,0.518,0.518,0.518,0.518,0.518,0.518,0.519,0.519,0.519,0.519,0.519,0.519,0.519,0.519,0.519,0.52,0.52,0.521,0.521,0.521,0.522,0.522,0.522,0.522,0.522,0.523,0.523,0.523,0.522,0.522,0.521,0.521,0.521,0.521,0.52,0.52,0.52,0.52,0.52,0.52,0.52,0.521,0.521,0.522,0.524,0.526,0.53,0.532,0.535,0.538,0.541,0.543,0.544,0.545,0.544,0.543,0.541,0.539,0.537,0.536,0.534,0.533,0.531,0.53,0.529,0.528,0.527,0.527,0.526,0.525,0.525,0.525,0.524,0.523,0.523,0.522,0.522,0.521,0.521,0.521,0.521,0.521,0.521,0.521,0.521,0.521,0.521,0.521,0.521,0.521,0.521,0.521,0.521,0.521,0.522,0.522,0.522,0.522,0.522,0.522,0.522,0.522,0.522,0.522,0.522,0.522,0.522,0.523,0.523,0.523,0.523,0.523,0.524,0.524,0.524,0.525,0.525,0.525,0.525,0.525,0.525,0.525,0.526,0.526,0.526,0.526,0.527,0.527,0.527,0.527,0.527,0.528,0.528,0.528,0.528,0.528,0.529,0.529,0.529,0.529,0.529,0.53,0.53,0.53,0.53,0.53,0.53,0.53,0.53,0.53,0.53,0.53,0.53,0.53,0.53,0.53,0.531,0.531,0.53,0.531,0.531,0.531,0.531,0.531,0.531,0.531,0.531,0.531,0.531,0.531,0.531,0.531,0.531,0.531,0.531,0.532,0.532,0.532,0.532,0.532,0.532,0.532,0.532,0.533,0.533,0.533,0.533,0.534,0.534,0.535,0.535,0.535,0.536,0.536,0.536,0.536,0.536,0.537,0.537,0.537,0.537,0.537,0.537,0.537,0.537,0.537,0.536,0.536,0.536,0.536,0.536,0.535,0.535,0.534,0.533,0.532,0.53,0.529,0.527,0.525,0.524,0.523,0.522,0.522,0.522,0.523,0.525,0.526,0.528,0.53,0.532,0.534,0.535,0.536,0.537,0.538,0.538,0.539,0.539,0.539,0.539,0.54,0.54,0.54,0.54,0.54,0.54,0.54,0.54,0.54,0.54,0.54,0.539,0.539,0.539,0.539,0.539,0.539,0.539,0.539,0.539,0.539,0.539,0.539,0.539,0.539,0.539,0.539,0.539,0.539,0.539,0.538,0.538,0.538,0.538,0.538,0.537
0.537,0.537,0.537,0.538,0.538,0.538,0.538,0.538,0.538,0.538,0.538,0.538,0.538,0.538,0.538,0.538,0.538,0.538,0.538,0.537,0.537,0.537,0.536,0.536,0.535,0.534,0.532,0.529,0.527,0.524,0.52,0.516,0.512,0.509,0.506,0.504,0.501,0.5,0.499,0.499,0.499,0.499,0.499,0.499,0.499,0.499,0.499,0.5,0.5,0.5,0.5,0.5,0.5,0.499,0.499,0.499,0.499,0.499,0.499,0.499,0.499,0.499,0.499,0.499,0.499,0.5,0.5,0.5,0.5,0.5,0.5,0.5,0.501,0.501,0.5,0.5,0.5,0.5,0.5,0.5,0.5,0.501,0.501,0.501,0.501,0.501,0.501,0.501,0.501,0.501,0.501,0.501,0.501,0.501,0.502,0.502,0.503,0.503,0.503,0.503,0.504,0.504,0.504,0.504,0.504,0.504,0.504,0.504,0.504,0.504,0.504,0.504,0.504,0.504,0.504,0.504,0.504,0.504,0.505,0.505,0.505,0.505,0.505,0.505,0.505,0.505,0.505,0.505,0.505,0.505,0.505,0.506,0.506,0.506,0.506,0.507,0.507,0.506,0.506,0.506,0.506,0.506,0.506,0.506,0.506,0.506,0.507,0.507,0.507,0.507,0.507,0.507,0.507,0.507,0.507,0.507,0.507,0.507,0.506,0.506,0.506,0.506,0.505,0.504,0.502,0.501,0.5,0.499,0.497,0.495,0.493,0.491,0.488,0.486,0.484,0.481,0.479,0.477,0.475,0.473,0.471,0.469,0.467,0.465,0.464,0.462,0.461,0.46,0.458,0.457,0.456,0.455,0.454,0.453,0.452,0.451,0.45,0.449,0.448,0.448,0.447,0.446,0.446,0.445,0.445,0.445,0.444,0.444,0.444,0.444,0.444,0.447,0.45,0,0.463,0,0,0,0.491,0,0,0.499,0.501,0.503,0.504,0.506,0.507,0.508,0.509,0.511,0.511,0.513,0.513,0.514,0.514,0.514,0.514,0.514,0.515,0.515,0.515,0.515,0.515,0.515,0.516,0.516,0.516,0.516,0.516,0.516,0.517,0.517,0.517,0.517,0.516,0.516,0.517,0.517,0.517,0.517,0.517,0.517,0.517,0.517,0.517,0.517,0.518,0.518,0.518,0.518,0.518,0.518,0.518,0.518,0.518,0.518,0.518,0.519,0.52,0.52,0.52,0.521,0.521,0.521,0.521,0.521,0.521,0.522,0.521,0.522,0.522,0.521,0.521,0.521,0.521,0.52,0.52,0.519,0.519,0.519,0.519,0.519,0.519,0.52,0.521,0.521,0.523,0.526,0.529,0.532,0.536,0.539,0.541,0.543,0.545,0.545,0.545,0.543,0.541,0.539,0.537,0.536,0.534,0.532,0.531,0.53,0.529,0.528,0.527,0.526,0.525,0.525,0.524,0.523,0.523,0.522,0.521,0.521,0.521,0.521,0.52,0.52,0.52,0.52,0.52,0.52,0.52,0.52,0.52,0.52,0.52,0.521,0.521,0.521,0.521,0.521,0.521,0.521,0.521,0.521,0.521,0.521,0.521,0.521,0.521,0.522,0.522,0.522,0.522,0.522,0.522,0.522,0.522,0.523,0.523,0.523,0.523,0.523,0.524,0.524,0.524,0.525,0.525,0.525,0.525,0.525,0.525,0.525,0.526,0.526,0.526,0.526,0.526,0.527,0.527,0.527,0.527,0.528,0.528,0.528,0.528,0.529,0.529,0.529,0.529,0.529,0.529,0.53,0.53,0.53,0.53,0.53,0.53,0.53,0.53,0.53,0.53,0.53,0.53,0.53,0.53,0.53,0.53,0.53,0.53,0.53,0.53,0.53,0.53,0.53,0.53,0.53,0.53,0.53,0.53,0.53,0.53,0.53,0.53,0.531,0.531,0.531,0.531,0.531,0.532,0.532,0.532,0.532,0.533,0.533,0.533,0.534,0.534,0.535,0.535,0.536,0.536,0.536,0.536,0.536,0.536,0.536,0.536,0.536,0.536,0.536,0.536,0.536,0.536,0.536,0.536,0.535,0.535,0.534,0.534,0.533,0.532,0.531,0.53,0.529,0.527,0.525,0.524,0.523,0.522,0.521,0.521,0.522,0.523,0.525,0.527,0.528,0.53,0.532,0.533,0.534,0.536,0.536,0.537,0.537,0.537,0.538,0.538,0.538,0.539,0.539,0.539,0.539,0.539,0.539,0.539,0.539,0.539,0.539,0.538,0.538,0.538,0.538,0.538,0.538,0.538,0.538,0.538,0.538,0.538,0.538,0.538,0.538,0.538,0.538,0.538,0.537,0.537,0.537,0.537,0.536,0.536,0.536,0.536
0.536,0.536,0.536,0.537,0.537,0.537,0.537,0.538,0.537,0.537,0.537,0.537,0.537,0.537,0.537,0.537,0.537,0.537,0.536,0.536,0.536,0.536,0.536,0.535,0.534,0.533,0.531,0.529,0.526,0.524,0.52,0.515,0.512,0.509,0.506,0.503,0.501,0.499,0.498,0.498,0.498,0.498,0.499,0.499,0.499,0.499,0.499,0.499,0.499,0.499,0.499,0.499,0.499,0.499,0.499,0.498,0.498,0.498,0.498,0.498,0.498,0.498,0.498,0.499,0.499,0.499,0.499,0.499,0.5,0.5,0.5,0.5,0.5,0.5,0.5,0.5,0.499,0.5,0.5,0.5,0.5,0.5,0.5,0.5,0.5,0.5,0.5,0.5,0.501,0.501,0.501,0.501,0.501,0.501,0.501,0.501,0.501,0.502,0.502,0.503,0.503,0.503,0.503,0.504,0.504,0.504,0.504,0.504,0.504,0.504,0.504,0.504,0.504,0.504,0.504,0.504,0.504,0.504,0.504,0.504,0.504,0.504,0.504,0.504,0.504,0.504,0.504,0.504,0.504,0.504,0.505,0.505,0.505,0.505,0.505,0.506,0.506,0.506,0.506,0.505,0.506,0.506,0.506,0.506,0.506,0.506,0.506,0.506,0.506,0.506,0.507,0.507,0.506,0.507,0.507,0.507,0.507,0.507,0.506,0.506,0.506,0.506,0.506,0.506,0.504,0.504,0.503,0.501,0.5,0.498,0.496,0.494,0.492,0.49,0.488,0.485,0.483,0.481,0.479,0.477,0.475,0.473,0.471,0.469,0.467,0.465,0.464,0.463,0.461,0.459,0.458,0.457,0.456,0.455,0.453,0.452,0.451,0.45,0.449,0.448,0.448,0.447,0.446,0.446,0.446,0.445,0.445,0.444,0.444,0.444,0.445,0.448,0,0,0,0,0,0,0,0,0,0.5,0.501,0.504,0.505,0.506,0.507,0.509,0.509,0.511,0.511,0.512,0.513,0.513,0.513,0.514,0.514,0.514,0.514,0.514,0.514,0.514,0.514,0.514,0.515,0.515,0.515,0.515,0.516,0.516,0.516,0.516,0.516,0.516,0.516,0.516,0.516,0.516,0.516,0.516,0.516,0.516,0.516,0.516,0.516,0.516,0.517,0.517,0.517,0.518,0.518,0.518,0.518,0.518,0.518,0.518,0.518,0.518,0.519,0.519,0.519,0.519,0.52,0.521,0.521,0.521,0.521,0.521,0.521,0.521,0.521,0.52,0.52,0.52,0.519,0.519,0.519,0.518,0.518,0.518,0.518,0.519,0.519,0.519,0.52,0.521,0.523,0.525,0.529,0.533,0.536,0.539,0.542,0.544,0.546,0.546,0.545,0.543,0.541,0.539,0.537,0.535,0.533,0.532,0.53,0.529,0.528,0.527,0.526,0.525,0.525,0.524,0.523,0.522,0.522,0.521,0.521,0.52,0.52,0.519,0.519,0.519,0.519,0.519,0.519,0.519,0.519,0.519,0.519,0.519,0.519,0.52,0.52,0.52,0.52,0.52,0.521,0.521,0.521,0.521,0.521,0.521,0.521,0.521,0.521,0.521,0.521,0.521,0.521,0.521,0.521,0.521,0.522,0.522,0.522,0.522,0.522,0.522,0.523,0.523,0.523,0.523,0.524,0.524,0.524,0.524,0.524,0.525,0.525,0.525,0.525,0.525,0.525,0.526,0.526,0.526,0.527,0.527,0.527,0.527,0.528,0.528,0.528,0.528,0.528,0.528,0.529,0.529,0.529,0.529,0.529,0.529,0.529,0.529,0.529,0.529,0.529,0.529,0.53,0.529,0.529,0.529,0.529,0.529,0.529,0.529,0.529,0.529,0.529,0.529,0.53,0.53,0.53,0.53,0.53,0.53,0.53,0.53,0.53,0.53,0.53,0.53,0.53,0.53,0.531,0.531,0.531,0.532,0.532,0.532,0.533,0.533,0.534,0.534,0.534,0.535,0.535,0.535,0.535,0.536,0.536,0.536,0.536,0.536,0.536,0.536,0.536,0.536,0.535,0.535,0.534,0.534,0.534,0.533,0.533,0.532,0.531,0.531,0.53,0.528,0.527,0.525,0.524,0.522,0.521,0.521,0.52,0.521,0.521,0.523,0.525,0.526,0.528,0.53,0.531,0.533,0.534,0.535,0.536,0.536,0.536,0.536,0.537,0.537,0.537,0.537,0.537,0.538,0.538,0.538,0.538,0.538,0.537,0.537,0.537,0.537,0.537,0.537,0.537,0.537,0.537,0.537,0.537,0.537,0.537,0.537,0.537,0.537,0.536,0.536,0.536,0.536,0.536,0.536,0.536,0.535,0.535,0.535,0.535
0.535,0.536,0.536,0.536,0.536,0.537,0.537,0.537,0.536,0.536,0.536,0.536,0.536,0.536,0.536,0.536,0.536,0.536,0.536,0.535,0.535,0.535,0.534,0.533,0.533,0.532,0.53,0.528,0.526,0.524,0.52,0.515,0.511,0,0.505,0.502,0.5,0.498,0.497,0.497,0.497,0.498,0.498,0.498,0.498,0.498,0.499,0.499,0.499,0.499,0.499,0.498,0.498,0.498,0.498,0.497,0.497,0.497,0.497,0.497,0.497,0.497,0.497,0.497,0.498,0.498,0.499,0.499,0.499,0.499,0.499,0.499,0.499,0.499,0.499,0.499,0.499,0.499,0.499,0.499,0.499,0.499,0.499,0.499,0.499,0.5,0.5,0.5,0.5,0.5,0.5,0.5,0.5,0.5,0.5,0.5,0.501,0.501,0.501,0.502,0.502,0.502,0.503,0.503,0.503,0.503,0.503,0.503,0.503,0.503,0.503,0.503,0.503,0.503,0.503,0.503,0.503,0.503,0.503,0.503,0.503,0.503,0.503,0.503,0.503,0.503,0.503,0.504,0.504,0.504,0.504,0.504,0.504,0.504,0.504,0.505,0.505,0.504,0.504,0.504,0.504,0.504,0.504,0.505,0.505,0.505,0.505,0.506,0.506,0.506,0.506,0.506,0.506,0.506,0.506,0.506,0.506,0.506,0.506,0.506,0.506,0.506,0.506,0.506,0.505,0.504,0.504,0.502,0.501,0.499,0.498,0.496,0.494,0.493,0.491,0.489,0.486,0.484,0.482,0.48,0.478,0.476,0.474,0.472,0.47,0.469,0.467,0.465,0.463,0.462,0.46,0.459,0.457,0.456,0.454,0.453,0.452,0.451,0.45,0.45,0.449,0.448,0.448,0.447,0.446,0.446,0.445,0.445,0.445,0.445,0.445,0,0,0,0,0.478,0.485,0.491,0.495,0.497,0.5,0.501,0.502,0.504,0.505,0.506,0.507,0.509,0.509,0.51,0.511,0.511,0.512,0.512,0.512,0.513,0.513,0.513,0.513,0.513,0.513,0.513,0.514,0.514,0.514,0.514,0.515,0.515,0.515,0.515,0.515,0.515,0.515,0.515,0.515,0.515,0.515,0.515,0.515,0.515,0.515,0.515,0.515,0.515,0.516,0.516,0.516,0.516,0.516,0.517,0.517,0.517,0.517,0.517,0.517,0.517,0.517,0.518,0.518,0.518,0.518,0.518,0.519,0.519,0.52,0.52,0.519,0.52,0.519,0.52,0.52,0.519,0.519,0.519,0.518,0.518,0.518,0.518,0.518,0.518,0.518,0.518,0.518,0.519,0.519,0.521,0.523,0.525,0.529,0.532,0.536,0.54,0.543,0.545,0.546,0.546,0.545,0.543,0.541,0.539,0.536,0.535,0.533,0.531,0.53,0.529,0.527,0.526,0.525,0.525,0.524,0.523,0.522,0.521,0.521,0.52,0.52,0.519,0.519,0.518,0.518,0.518,0.518,0.518,0.518,0.518,0.518,0.518,0.518,0.518,0.519,0.519,0.519,0.519,0.519,0.519,0.52,0.52,0.52,0.52,0.52,0.52,0.52,0.521,0.521,0.521,0.521,0.521,0.521,0.521,0.521,0.521,0.521,0.521,0.521,0.521,0.521,0.521,0.521,0.522,0.522,0.522,0.522,0.523,0.523,0.523,0.523,0.524,0.524,0.524,0.524,0.525,0.525,0.525,0.525,0.526,0.526,0.526,0.526,0.527,0.527,0.527,0.527,0.527,0.528,0.528,0.528,0.528,0.528,0.528,0.528,0.529,0.529,0.529,0.529,0.529,0.529,0.529,0.529,0.529,0.529,0.529,0.529,0.529,0.529,0.529,0.529,0.529,0.529,0.529,0.529,0.529,0.529,0.529,0.529,0.529,0.529,0.529,0.529,0.529,0.53,0.53,0.53,0.53,0.53,0.53,0.531,0.531,0.531,0.532,0.532,0.532,0.533,0.533,0.534,0.534,0.534,0.535,0.535,0.535,0.535,0.535,0.535,0.535,0.535,0.535,0.535,0.534,0.534,0.534,0.533,0.533,0.533,0.532,0.532,0.531,0.53,0.53,0.529,0.528,0.526,0.525,0.523,0.522,0.521,0.52,0.519,0.519,0.52,0.521,0.523,0.525,0.526,0.528,0.529,0.531,0.532,0.533,0.534,0.535,0.535,0.535,0.536,0.536,0.536,0.536,0.536,0.536,0.537,0.537,0.537,0.537,0.537,0.537,0.536,0.537,0.536,0.536,0.536,0.536,0.536,0.536,0.536,0.536,0.536,0.536,0.536,0.536,0.536,0.536,0.536,0.535,0.535,0.535,0.534,0.534,0.534,0.534,0.534
0.534,0.535,0.535,0.535,0.536,0.536,0.536,0.536,0.536,0.536,0.536,0.535,0.535,0.535,0.535,0.535,0.535,0.535,0.535,0.534,0.534,0.534,0.533,0.532,0.532,0.531,0.53,0.528,0.526,0.523,0.519,0.515,0.511,0.507,0.504,0.501,0.499,0.498,0.497,0.497,0.497,0.497,0.497,0.497,0.498,0.498,0.498,0.498,0.498,0.498,0.497,0.497,0.497,0.497,0.497,0.496,0.496,0.496,0.496,0.496,0.496,0.496,0.496,0.497,0.497,0.497,0.498,0.498,0.498,0.498,0.499,0.499,0.499,0.499,0.499,0.499,0.499,0.499,0.499,0.499,0.499,0.499,0.499,0.499,0.499,0.499,0.499,0.499,0.499,0.499,0.499,0.499,0.499,0.499,0.499,0.499,0.5,0.5,0.501,0.501,0.501,0.501,0.502,0.502,0.502,0.502,0.502,0.502,0.502,0.502,0.502,0.502,0.502,0.502,0.502,0.502,0.502,0.502,0.502,0.502,0.502,0.502,0.503,0.503,0.503,0.503,0.503,0.503,0.503,0.503,0.503,0.503,0.503,0.503,0.504,0.504,0.504,0.504,0.504,0.503,0.504,0.504,0.504,0.504,0.504,0.504,0.504,0.505,0.505,0.505,0.505,0.505,0.505,0.506,0.505,0.505,0.506,0.506,0.506,0.506,0.506,0.506,0.506,0.506,0.505,0.505,0.504,0.503,0.502,0.5,0.499,0.498,0.497,0.495,0.493,0.491,0.49,0.487,0.486,0.483,0.481,0.479,0.477,0.475,0.474,0.472,0.47,0.468,0.466,0.464,0.463,0.461,0.46,0.457,0.456,0.454,0.453,0.452,0.451,0.451,0.45,0.449,0.449,0.448,0.447,0.447,0.446,0.446,0.446,0.445,0,0,0,0,0,0.483,0.491,0.494,0.496,0.497,0.5,0.501,0.503,0.504,0.505,0.506,0.507,0.509,0.509,0.51,0.51,0.511,0.511,0.511,0.511,0.511,0.512,0.512,0.512,0.512,0.512,0.513,0.513,0.513,0.514,0.514,0.514,0.514,0.514,0.514,0.514,0.514,0.514,0.514,0.514,0.514,0.514,0.515,0.515,0.515,0.515,0.515,0.515,0.515,0.515,0.515,0.515,0.515,0.516,0.516,0.516,0.516,0.515,0.516,0.516,0.516,0.516,0.517,0.517,0.517,0.518,0.518,0.518,0.518,0.518,0.518,0.518,0.518,0.518,0.518,0.518,0.518,0.518,0.518,0.518,0.518,0.518,0.518,0.517,0.517,0.517,0.517,0.518,0.518,0.519,0.52,0.522,0.525,0.528,0.532,0.536,0.54,0.544,0.545,0.547,0.546,0.545,0.543,0.541,0.538,0.536,0.534,0.533,0.531,0.53,0.528,0.527,0.526,0.525,0.524,0.523,0.522,0.521,0.521,0.52,0.519,0.519,0.518,0.518,0.518,0.518,0.518,0.518,0.518,0.518,0.518,0.518,0.518,0.518,0.518,0.518,0.518,0.518,0.518,0.519,0.519,0.519,0.519,0.519,0.519,0.519,0.519,0.519,0.519,0.519,0.52,0.52,0.52,0.52,0.52,0.52,0.52,0.52,0.52,0.521,0.521,0.521,0.521,0.521,0.521,0.521,0.521,0.521,0.522,0.522,0.522,0.522,0.523,0.523,0.523,0.523,0.524,0.524,0.525,0.525,0.525,0.525,0.525,0.526,0.526,0.526,0.526,0.527,0.527,0.527,0.527,0.527,0.527,0.527,0.528,0.528,0.528,0.528,0.528,0.528,0.528,0.528,0.528,0.528,0.528,0.528,0.528,0.528,0.528,0.528,0.528,0.528,0.528,0.528,0.528,0.528,0.528,0.528,0.528,0.528,0.528,0.528,0.528,0.529,0.529,0.529,0.529,0.529,0.529,0.53,0.53,0.53,0.53,0.531,0.531,0.531,0.532,0.532,0.533,0.533,0.533,0.534,0.534,0.534,0.534,0.534,0.534,0.534,0.534,0.534,0.534,0.534,0.534,0.533,0.533,0.532,0.532,0.531,0.531,0.531,0.53,0.53,0.529,0.528,0.527,0.526,0.525,0.523,0.522,0.521,0.519,0.519,0.518,0.519,0.52,0.521,0.523,0.525,0.526,0.528,0.529,0.53,0.532,0.532,0.533,0.534,0.534,0.534,0.535,0.535,0.535,0.536,0.536,0.536,0.536,0.536,0.536,0.536,0.536,0.536,0.536,0.536,0.536,0.536,0.536,0.536,0.536,0.536,0.536,0.536,0.536,0.535,0.535,0.535,0.535,0.534,0.534,0.534,0.533,0.533,0.533,0.533,0.533,0.533
0.534,0.534,0.534,0.535,0.535,0.535,0.535,0.535,0.535,0.535,0.534,0.534,0.534,0.534,0.534,0.534,0.534,0.534,0.534,0.533,0.533,0.533,0.532,0.531,0.531,0.53,0.53,0.528,0.525,0.523,0.519,0.515,0.511,0.507,0.504,0.501,0.499,0.497,0.497,0.496,0.496,0.496,0.497,0.497,0.497,0.497,0.497,0.497,0.497,0.497,0.497,0.497,0.496,0.496,0.496,0.495,0.495,0.495,0.495,0.495,0.495,0.495,0.495,0.496,0.496,0.497,0.497,0.497,0.497,0.497,0.498,0.498,0.498,0.498,0.499,0.499,0.499,0.499,0.499,0.499,0.499,0.499,0.499,0.499,0.498,0.498,0.498,0.498,0.498,0.498,0.498,0.498,0.498,0.498,0.498,0.499,0.499,0.499,0.499,0.5,0.501,0.501,0.501,0.501,0.502,0.502,0.502,0.502,0.502,0.502,0.501,0.501,0.501,0.501,0.501,0.501,0.501,0.501,0.501,0.501,0.501,0.501,0.501,0.502,0.502,0.502,0.502,0.502,0.502,0.502,0.502,0.502,0.502,0.502,0.502,0.503,0.503,0.503,0.502,0.502,0.502,0.503,0.503,0.503,0.503,0.503,0.504,0.504,0.504,0.504,0.504,0.505,0.504,0.504,0.504,0.505,0.505,0.505,0.505,0.505,0.505,0.506,0.506,0.506,0.505,0.505,0.504,0.503,0.502,0.501,0.5,0.499,0.498,0.497,0.495,0.493,0.492,0.49,0.488,0.486,0.484,0.482,0.48,0.478,0.477,0.475,0.474,0.471,0.47,0.468,0.466,0.464,0.462,0.46,0.458,0.456,0.455,0.454,0.453,0.452,0.452,0.451,0.45,0.449,0.448,0.448,0.447,0.447,0.447,0.447,0,0,0,0,0,0.486,0.491,0,0.497,0.498,0.501,0.502,0.503,0.504,0.505,0.506,0.507,0.508,0.509,0.509,0.509,0.51,0.51,0.51,0.511,0.511,0.511,0.511,0.511,0.511,0.512,0.512,0.512,0.513,0.513,0.513,0.513,0.513,0.513,0.513,0.513,0.514,0.514,0.514,0.514,0.514,0.514,0.514,0.514,0.514,0.514,0.514,0.514,0.514,0.514,0.514,0.515,0.514,0.515,0.515,0.515,0.515,0.515,0.515,0.515,0.515,0.515,0.515,0.516,0.516,0.516,0.517,0.517,0.517,0.517,0.517,0.517,0.517,0.518,0.518,0.518,0.517,0.517,0.517,0.517,0.517,0.517,0.517,0.517,0.516,0.516,0.517,0.517,0.518,0.518,0.52,0.522,0.525,0.529,0.533,0.537,0.541,0.544,0.546,0.547,0.546,0.545,0.543,0.541,0.538,0.536,0.534,0.532,0.53,0.529,0.527,0.526,0.525,0.525,0.524,0.522,0.521,0.521,0.52,0.519,0.519,0.518,0.518,0.518,0.517,0.517,0.517,0.517,0.517,0.517,0.517,0.517,0.517,0.518,0.518,0.518,0.518,0.518,0.518,0.518,0.518,0.518,0.518,0.518,0.519,0.519,0.519,0.519,0.519,0.519,0.519,0.519,0.519,0.519,0.519,0.519,0.519,0.519,0.52,0.52,0.52,0.52,0.52,0.52,0.52,0.52,0.52,0.521,0.521,0.521,0.521,0.521,0.521,0.522,0.522,0.522,0.523,0.523,0.523,0.524,0.524,0.525,0.525,0.525,0.525,0.525,0.526,0.526,0.526,0.526,0.526,0.527,0.527,0.527,0.527,0.527,0.527,0.527,0.527,0.527,0.527,0.527,0.527,0.527,0.527,0.527,0.527,0.527,0.527,0.527,0.527,0.527,0.527,0.527,0.527,0.527,0.527,0.527,0.527,0.527,0.527,0.527,0.528,0.528,0.528,0.528,0.528,0.528,0.529,0.529,0.529,0.53,0.53,0.53,0.53,0.531,0.531,0.532,0.532,0.532,0.533,0.533,0.533,0.533,0.534,0.534,0.534,0.534,0.533,0.533,0.533,0.533,0.533,0.532,0.532,0.531,0.531,0.53,0.53,0.53,0.53,0.529,0.529,0.528,0.527,0.525,0.524,0.522,0.521,0.52,0.519,0.518,0.518,0.518,0.519,0.521,0.522,0.523,0.525,0.526,0.527,0.529,0.53,0.531,0.532,0.532,0.533,0.533,0.534,0.534,0.534,0.535,0.535,0.535,0.535,0.535,0.536,0.536,0.536,0.536,0.536,0.536,0.536,0.535,0.535,0.535,0.535,0.535,0.535,0.535,0.535,0.534,0.534,0.534,0.534,0.533,0.533,0.532,0.532,0.532,0.532,0.532,0.531,0.531
0.533,0.533,0.534,0.534,0.534,0.534,0.534,0.534,0.534,0.534,0.533,0.533,0.533,0.533,0.533,0.533,0.533,0.533,0.532,0.532,0.532,0.532,0.531,0.53,0.53,0.53,0.529,0.527,0.525,0.523,0.52,0.515,0.511,0.507,0.504,0.501,0.499,0.497,0.496,0.495,0.495,0.496,0.496,0.496,0.496,0.496,0.496,0.496,0.496,0.496,0.496,0.496,0.495,0.495,0.495,0.495,0.495,0.495,0.495,0.495,0.495,0.495,0.495,0.495,0.495,0.495,0.496,0.496,0.496,0.497,0.497,0.497,0.497,0.498,0.498,0.498,0.498,0.499,0.499,0.499,0.498,0.498,0.498,0.498,0.498,0.498,0.498,0.497,0.497,0.497,0.497,0.497,0.497,0.497,0.497,0.497,0.498,0.498,0.499,0.499,0.5,0.5,0.5,0.501,0.501,0.501,0.501,0.501,0.501,0.501,0.501,0.501,0.501,0.501,0.501,0.501,0.501,0.501,0.501,0.501,0.501,0.501,0.501,0.501,0.501,0.501,0.501,0.501,0.501,0.501,0.501,0.501,0.501,0.501,0.502,0.501,0.501,0.501,0.502,0.502,0.502,0.502,0.502,0.502,0.502,0.502,0.503,0.504,0.504,0.504,0.504,0.504,0.504,0.504,0.504,0.504,0.504,0.504,0.504,0.504,0.504,0.505,0.506,0.505,0.505,0.504,0.504,0.504,0.503,0.502,0.501,0.501,0.499,0.498,0.497,0.495,0.494,0.492,0.491,0.489,0.487,0.485,0.483,0.482,0.48,0.479,0,0.475,0.473,0.471,0.469,0.467,0.465,0.463,0.461,0.458,0.457,0.456,0.455,0.454,0.453,0.453,0.452,0.451,0.45,0.45,0.449,0.449,0.449,0.45,0.451,0,0,0.47,0,0.488,0.492,0,0.497,0.499,0.501,0.503,0.504,0.504,0.505,0.506,0.506,0.507,0.508,0.509,0.509,0.509,0.509,0.509,0.51,0.51,0.51,0.51,0.51,0.511,0.511,0.511,0.511,0.512,0.512,0.512,0.512,0.512,0.512,0.512,0.513,0.513,0.513,0.513,0.514,0.513,0.514,0.514,0.514,0.514,0.514,0.514,0.514,0.514,0.514,0.514,0.514,0.514,0.514,0.514,0.514,0.514,0.514,0.514,0.514,0.514,0.514,0.514,0.515,0.515,0.515,0.516,0.516,0.516,0.516,0.516,0.516,0.516,0.516,0.517,0.517,0.517,0.516,0.516,0.516,0.516,0.516,0.516,0.516,0.516,0.516,0.516,0.517,0.517,0.518,0.519,0.521,0.525,0.529,0.533,0.538,0.542,0.546,0.546,0.547,0.547,0.545,0.543,0.54,0.537,0.535,0.533,0.531,0.53,0.528,0.527,0.525,0.525,0.524,0.523,0.522,0.521,0.52,0.519,0.519,0.518,0.518,0.517,0.517,0.517,0.517,0.517,0.517,0.517,0.517,0.517,0.517,0.517,0.517,0.517,0.517,0.517,0.517,0.517,0.517,0.518,0.518,0.518,0.518,0.518,0.518,0.518,0.518,0.518,0.518,0.518,0.518,0.518,0.518,0.518,0.518,0.518,0.518,0.518,0.518,0.519,0.519,0.519,0.519,0.519,0.519,0.519,0.52,0.52,0.52,0.52,0.52,0.521,0.521,0.521,0.521,0.522,0.522,0.522,0.523,0.523,0.524,0.524,0.524,0.525,0.525,0.525,0.525,0.525,0.525,0.526,0.526,0.526,0.526,0.526,0.526,0.526,0.527,0.527,0.527,0.527,0.527,0.527,0.527,0.527,0.527,0.527,0.527,0.526,0.526,0.526,0.526,0.526,0.526,0.526,0.526,0.526,0.526,0.526,0.527,0.527,0.527,0.527,0.527,0.527,0.527,0.527,0.528,0.528,0.528,0.528,0.529,0.529,0.53,0.53,0.53,0.531,0.531,0.531,0.532,0.532,0.532,0.532,0.533,0.533,0.533,0.533,0.533,0.533,0.533,0.533,0.532,0.532,0.531,0.531,0.53,0.53,0.53,0.53,0.529,0.529,0.528,0.528,0.527,0.526,0.525,0.524,0.522,0.521,0.52,0.519,0.518,0.517,0.517,0.518,0.519,0.52,0.522,0.523,0.525,0.526,0.528,0.529,0.53,0.531,0.531,0.532,0.532,0.532,0.533,0.533,0.533,0.534,0.534,0.534,0.534,0.535,0.535,0.535,0.535,0.535,0.535,0.535,0.535,0.535,0.535,0.535,0.535,0.534,0.534,0.534,0.534,0.533,0.533,0.533,0.532,0.532,0.531,0.531,0.531,0.531,0.531,0.53,0.53
0.532,0.533,0.533,0.533,0.533,0.533,0.533,0.533,0.533,0.533,0.533,0.532,0.532,0.532,0.532,0.532,0.532,0.532,0.532,0.531,0.531,0.531,0.53,0.53,0.53,0.529,0.529,0.527,0.525,0,0,0.516,0,0,0.504,0.501,0.498,0.497,0.495,0.495,0.495,0.495,0.495,0.495,0.495,0.495,0.495,0.495,0.495,0.495,0.495,0.495,0.495,0.495,0.495,0.494,0.494,0.494,0.494,0.494,0.494,0.494,0.494,0.494,0.494,0.495,0.495,0.495,0.495,0.496,0.496,0.496,0.497,0.497,0.497,0.498,0.498,0.498,0.498,0.498,0.498,0.498,0.498,0.498,0.497,0.497,0.497,0.497,0.497,0.496,0.497,0.497,0.496,0.496,0.496,0.496,0.497,0.497,0.497,0.498,0.499,0.499,0.499,0.5,0.5,0.5,0.501,0.501,0.5,0.5,0.5,0.5,0.5,0.5,0.5,0.5,0.5,0.5,0.5,0.5,0.5,0.5,0.5,0.5,0.5,0.5,0.5,0.5,0.5,0.5,0.501,0.501,0.501,0.501,0.501,0.501,0.501,0.501,0.501,0.501,0.501,0.501,0.501,0.501,0.501,0.502,0.502,0.502,0.502,0.503,0.503,0.503,0.503,0.503,0.503,0.503,0.503,0.504,0.504,0.504,0.504,0.504,0.505,0.505,0.505,0.504,0.504,0.504,0.503,0.503,0.502,0.501,0.501,0.499,0.499,0.497,0.496,0.495,0.493,0.491,0.49,0.488,0.487,0.485,0.483,0.481,0.48,0.478,0.476,0.474,0.472,0.47,0.468,0.465,0.463,0.461,0.46,0.458,0.457,0.456,0.456,0.455,0.454,0.453,0.452,0.452,0.451,0.451,0.452,0.453,0.454,0,0,0,0,0.489,0.492,0.494,0.497,0.499,0.501,0.502,0.503,0.504,0.504,0.505,0.506,0.507,0.508,0.508,0.508,0.508,0.509,0.509,0.509,0.509,0.509,0.509,0.509,0.51,0.51,0.51,0.511,0.511,0.511,0.511,0.512,0.512,0.512,0.512,0.512,0.512,0.512,0.513,0.513,0.513,0.513,0.513,0.514,0.513,0.513,0.513,0.513,0.513,0.513,0.513,0.513,0.514,0.514,0.514,0.514,0.514,0.514,0.514,0.514,0.514,0.514,0.514,0.514,0.514,0.514,0.514,0.515,0.515,0.515,0.515,0.515,0.514,0.515,0.515,0.515,0.515,0.515,0.515,0.515,0.515,0.515,0.515,0.515,0.515,0.515,0.515,0.516,0.516,0.517,0.518,0.521,0.524,0.529,0.533,0.538,0.542,0.546,0.547,0.547,0.546,0.544,0.542,0.539,0.537,0.535,0.532,0.53,0.529,0.527,0.526,0.525,0.524,0.523,0.522,0.521,0.52,0.519,0.518,0.518,0.518,0.517,0.517,0.516,0.516,0.516,0.516,0.516,0.516,0.516,0.516,0.516,0.516,0.516,0.516,0.516,0.516,0.516,0.516,0.516,0.516,0.517,0.517,0.517,0.517,0.517,0.517,0.517,0.517,0.517,0.517,0.517,0.517,0.517,0.518,0.518,0.518,0.518,0.518,0.518,0.518,0.518,0.518,0.518,0.518,0.518,0.518,0.519,0.519,0.519,0.519,0.519,0.52,0.52,0.52,0.521,0.521,0.521,0.521,0.522,0.522,0.523,0.523,0.523,0.523,0.524,0.524,0.524,0.525,0.525,0.525,0.525,0.525,0.525,0.525,0.525,0.526,0.526,0.526,0.526,0.526,0.526,0.526,0.526,0.526,0.526,0.526,0.526,0.526,0.526,0.526,0.526,0.526,0.526,0.526,0.526,0.526,0.526,0.526,0.526,0.526,0.526,0.526,0.526,0.526,0.526,0.526,0.527,0.527,0.528,0.528,0.528,0.529,0.529,0.53,0.53,0.53,0.53,0.531,0.531,0.531,0.531,0.532,0.532,0.532,0.532,0.532,0.532,0.532,0.532,0.532,0.531,0.531,0.53,0.53,0.53,0.53,0.529,0.529,0.528,0.528,0.527,0.527,0.526,0.525,0.525,0.523,0.522,0.521,0.519,0.518,0.518,0.517,0.517,0.517,0.518,0.519,0.52,0.521,0.523,0.525,0.526,0.528,0.529,0.53,0.53,0.53,0.531,0.531,0.532,0.532,0.532,0.533,0.533,0.533,0.533,0.534,0.534,0.534,0.534,0.534,0.534,0.534,0.534,0.534,0.534,0.534,0.534,0.534,0.533,0.533,0.533,0.532,0.532,0.532,0.531,0.531,0.531,0.53,0.53,0.53,0.53,0.53,0.53
0.532,0.532,0.532,0.532,0.532,0.532,0.532,0.532,0.532,0.532,0.532,0.532,0.532,0.531,0.531,0.531,0.531,0.531,0.531,0.531,0.53,0.53,0.53,0.53,0.53,0.529,0.528,0.527,0.526,0,0,0.516,0.511,0.507,0.504,0.501,0.498,0.496,0.495,0.494,0.494,0.494,0.494,0.494,0.494,0.494,0.494,0.494,0.494,0.494,0.494,0.494,0.494,0.494,0.494,0.494,0.493,0.493,0.493,0.493,0.493,0.493,0.493,0.493,0.493,0.494,0.494,0.494,0.494,0.495,0.495,0.495,0.496,0.496,0.497,0.497,0.497,0.497,0.498,0.498,0.497,0.497,0.497,0.497,0.497,0.497,0.496,0.496,0.495,0.495,0.495,0.495,0.495,0.495,0.495,0.495,0.495,0.496,0.497,0.497,0.498,0.498,0.499,0.499,0.499,0.499,0.5,0.5,0.499,0.499,0.499,0.499,0.499,0.499,0.499,0.499,0.499,0.499,0.499,0.499,0.499,0.499,0.5,0.5,0.5,0.5,0.499,0.499,0.499,0.5,0.5,0.5,0.5,0.5,0.5,0.5,0.5,0.5,0.5,0.501,0.501,0.501,0.501,0.501,0.501,0.501,0.501,0.501,0.501,0.501,0.501,0.502,0.502,0.501,0.501,0.502,0.502,0.502,0.503,0.503,0.503,0.504,0.504,0.504,0.504,0.504,0.504,0.504,0.503,0.503,0.503,0.502,0.501,0.501,0.499,0.499,0.497,0.496,0.495,0.493,0.492,0.49,0.489,0.488,0.486,0.484,0.483,0.481,0.479,0.477,0.475,0.473,0.471,0.468,0.465,0.463,0.462,0.46,0.459,0.458,0.458,0.457,0.456,0.455,0.454,0.454,0.454,0.454,0.455,0.456,0.457,0.461,0,0,0.481,0.488,0.491,0.493,0.497,0.499,0.501,0.502,0.503,0.504,0.504,0.505,0.505,0.506,0.506,0.507,0.507,0.507,0.508,0.508,0.508,0.508,0.508,0.508,0.509,0.509,0.509,0.509,0.51,0.51,0.51,0.511,0.511,0.511,0.511,0.511,0.511,0.511,0.512,0.512,0.512,0.512,0.512,0.513,0.513,0.512,0.512,0.512,0.512,0.512,0.512,0.513,0.513,0.513,0.513,0.513,0.513,0.513,0.513,0.513,0.513,0.513,0.513,0.513,0.513,0.513,0.513,0.514,0.514,0.514,0.514,0.514,0.514,0.514,0.514,0.514,0.514,0.514,0.514,0.514,0.514,0.514,0.514,0.514,0.514,0.514,0.514,0.515,0.515,0.515,0.516,0.518,0.52,0.524,0,0,0.538,0.542,0.547,0.547,0.547,0.547,0.544,0.542,0.539,0.536,0.534,0.532,0.53,0.528,0.527,0.525,0.525,0.523,0.522,0.521,0.521,0.52,0.519,0.518,0.517,0.517,0.516,0.516,0.516,0.516,0.516,0.516,0.516,0.516,0.516,0.516,0.516,0.515,0.515,0.515,0.515,0.515,0.515,0.515,0.515,0.515,0.516,0.516,0.516,0.516,0.516,0.516,0.516,0.516,0.516,0.516,0.516,0.516,0.516,0.516,0.517,0.517,0.517,0.517,0.517,0.517,0.517,0.518,0.518,0.518,0.518,0.518,0.518,0.518,0.518,0.518,0.518,0.518,0.519,0.519,0.52,0.52,0.52,0.521,0.521,0.521,0.522,0.522,0.522,0.522,0.523,0.523,0.523,0.524,0.524,0.524,0.524,0.524,0.525,0.525,0.525,0.525,0.525,0.525,0.525,0.525,0.525,0.525,0.525,0.525,0.525,0.525,0.525,0.525,0.525,0.525,0.525,0.525,0.525,0.525,0.525,0.525,0.525,0.525,0.525,0.525,0.525,0.525,0.525,0.525,0.525,0.526,0.526,0.526,0.527,0.527,0.527,0.528,0.528,0.529,0.529,0.53,0.53,0.53,0.53,0.53,0.531,0.531,0.531,0.531,0.531,0.531,0.531,0.531,0.531,0.53,0.53,0.53,0.53,0.53,0.529,0.529,0.528,0.528,0.528,0.527,0.527,0.526,0.525,0.525,0.524,0.523,0.521,0.52,0.519,0.518,0.517,0.516,0.516,0.516,0.517,0.518,0.519,0.521,0.522,0.523,0.525,0.526,0.528,0.529,0.53,0.53,0.53,0.53,0.531,0.531,0.531,0.532,0.532,0.532,0.532,0.533,0.533,0.533,0.533,0.533,0.533,0.533,0.533,0.533,0.533,0.533,0.533,0.533,0.533,0.532,0.532,0.532,0.531,0.531,0.531,0.53,0.53,0.53,0.53,0.529,0.529,0.529,0.529
0.531,0.531,0.531,0.531,0.531,0.531,0.532,0.532,0.531,0.531,0.531,0.531,0.531,0.531,0.531,0.53,0.53,0.53,0.53,0.53,0.53,0.53,0.53,0.529,0.529,0.528,0.528,0.527,0.525,0.524,0.521,0.516,0.512,0.507,0.504,0.5,0.497,0.495,0.494,0.493,0.493,0.493,0.493,0.493,0.493,0.493,0.493,0.493,0.493,0.493,0.493,0.493,0.493,0.493,0.493,0.493,0.493,0.493,0.493,0.493,0.493,0.493,0.493,0.493,0.493,0.493,0.493,0.493,0.493,0.494,0.494,0.495,0.495,0.495,0.496,0.496,0.497,0.497,0.497,0.497,0.497,0.497,0.497,0.496,0.496,0.496,0.495,0.495,0.495,0.495,0.495,0.494,0.494,0.494,0.494,0.494,0.495,0.495,0.495,0.496,0.497,0.497,0.498,0.498,0.499,0.499,0.499,0.499,0.499,0.499,0.499,0.499,0.499,0.498,0.499,0.499,0.499,0.499,0.499,0.499,0.499,0.499,0.499,0.499,0.499,0.499,0.499,0.499,0.499,0.499,0.499,0.499,0.499,0.499,0.499,0.5,0.5,0.5,0.5,0.5,0.5,0.5,0.5,0.5,0.5,0.501,0.501,0.501,0.501,0.501,0.5,0.501,0.5,0.5,0.5,0.5,0.501,0.501,0.501,0.502,0.502,0.503,0.503,0.503,0.503,0.503,0.503,0.503,0.503,0.503,0.503,0.502,0.501,0.501,0.5,0.499,0.498,0.497,0.496,0.495,0.493,0.492,0.491,0.49,0.489,0.487,0.485,0.484,0.483,0.48,0.479,0.476,0.473,0.471,0.468,0.466,0.464,0.462,0.461,0.46,0.46,0.459,0.458,0.458,0.457,0.456,0.456,0.457,0.457,0.458,0.459,0.463,0.467,0.473,0,0.486,0.49,0.493,0.497,0.499,0.501,0.501,0.502,0.503,0.504,0.504,0.505,0.506,0.506,0.506,0.506,0.507,0.506,0.507,0.507,0.507,0.507,0.507,0.508,0.508,0.508,0.509,0.509,0.509,0.509,0.509,0.51,0.51,0.51,0.51,0.51,0.511,0.511,0.511,0.511,0.511,0.512,0.512,0.512,0.512,0.512,0.512,0.512,0.512,0.511,0.512,0.512,0.512,0.512,0.512,0.512,0.512,0.512,0.512,0.512,0.512,0.512,0.512,0.512,0.512,0.513,0.513,0.513,0.513,0.513,0.513,0.513,0.513,0.513,0.513,0.514,0.514,0.514,0.514,0.514,0.514,0.514,0.514,0.514,0.514,0.514,0.514,0.514,0.514,0.515,0.517,0.52,0.524,0,0.534,0.538,0.542,0.547,0.548,0.547,0.546,0.544,0.542,0.539,0.536,0.534,0.532,0.53,0.528,0.526,0.525,0.524,0.523,0.522,0.521,0.52,0.519,0.518,0.517,0.517,0.516,0.516,0.516,0.515,0.515,0.515,0.515,0.515,0.515,0.515,0.515,0.515,0.515,0.515,0.515,0.514,0.514,0.514,0.514,0.514,0.514,0.515,0.515,0.515,0.515,0.515,0.515,0.515,0.515,0.515,0.515,0.515,0.515,0.515,0.515,0.516,0.516,0.516,0.516,0.516,0.516,0.517,0.517,0.517,0.516,0.517,0.517,0.517,0.517,0.517,0.517,0.517,0.518,0.518,0.518,0.518,0.519,0.519,0.519,0.52,0.52,0.521,0.521,0.521,0.521,0.521,0.522,0.522,0.522,0.523,0.523,0.523,0.523,0.523,0.524,0.524,0.524,0.524,0.524,0.524,0.524,0.524,0.525,0.525,0.525,0.525,0.525,0.525,0.525,0.525,0.525,0.525,0.525,0.525,0.525,0.524,0.524,0.524,0.525,0.525,0.525,0.525,0.525,0.525,0.525,0.525,0.525,0.525,0.525,0.525,0.526,0.526,0.527,0.527,0.528,0.528,0.529,0.529,0.529,0.53,0.53,0.53,0.53,0.53,0.53,0.53,0.53,0.53,0.53,0.53,0.53,0.53,0.53,0.529,0.529,0.528,0.528,0.528,0.527,0.527,0.526,0.526,0.525,0.525,0.524,0.524,0.522,0.521,0.52,0.519,0.518,0.517,0.516,0.516,0.516,0.516,0.517,0.518,0.519,0.521,0.522,0.524,0.525,0.526,0.528,0.529,0.529,0.53,0.529,0.53,0.53,0.53,0.531,0.531,0.531,0.531,0.532,0.532,0.532,0.532,0.532,0.533,0.533,0.533,0.533,0.533,0.532,0.532,0.532,0.532,0.531,0.531,0.531,0.531,0.53,0.53,0.53,0.53,0.529,0.529,0.529,0.529,0.528,0.528
0.53,0.531,0.531,0.531,0.531,0.531,0.531,0.531,0.531,0.531,0.53,0.53,0.53,0.53,0.53,0.53,0.53,0.53,0.53,0.53,0.529,0.529,0.529,0.529,0.529,0.528,0.527,0.527,0.525,0.524,0.521,0.516,0.511,0.506,0.503,0.499,0.496,0.495,0.493,0.493,0.492,0.492,0.492,0.492,0.492,0.492,0.492,0.492,0.492,0.492,0.493,0.493,0.493,0.493,0.492,0.493,0.493,0.493,0.493,0.493,0.492,0.492,0.492,0.492,0.492,0.492,0.492,0.492,0.493,0.493,0.493,0.494,0.494,0.495,0.495,0.496,0.496,0.497,0.497,0.497,0.496,0.496,0.496,0.496,0.495,0.495,0.494,0.494,0.494,0.493,0.493,0.493,0.493,0.493,0.493,0.493,0.494,0.494,0.495,0.495,0.496,0.496,0.497,0.497,0.498,0.498,0.498,0.498,0.498,0.498,0.498,0.497,0.497,0.497,0.498,0.498,0.498,0.498,0.498,0.498,0.498,0.498,0.498,0.498,0.498,0.498,0.498,0.498,0.498,0.498,0.499,0.499,0.499,0.499,0.499,0.499,0.499,0.499,0.499,0.499,0.499,0.5,0.5,0.5,0.5,0.5,0.5,0.5,0.5,0.5,0.499,0.499,0.499,0.499,0.499,0.499,0.5,0.5,0.501,0.501,0.501,0.501,0.502,0.502,0.502,0.502,0.502,0.502,0.502,0.502,0.502,0.502,0.501,0.501,0.5,0.5,0.499,0.498,0.497,0.496,0.495,0.494,0.493,0.492,0.491,0.49,0.488,0.487,0.485,0.484,0.481,0.48,0.477,0.474,0.471,0.469,0.467,0.465,0.464,0.462,0.462,0.461,0.461,0.46,0.459,0.459,0.459,0.459,0.46,0.461,0.462,0.464,0.468,0.473,0.48,0.486,0.49,0.493,0.497,0.499,0.501,0.502,0.502,0.503,0.503,0.504,0.504,0.505,0.505,0.505,0.506,0.506,0.506,0.506,0.506,0.506,0.506,0.506,0.506,0.506,0.507,0.507,0.508,0.508,0.508,0.509,0.509,0.509,0.509,0.509,0.509,0.51,0.51,0.51,0.511,0.511,0.511,0.511,0.511,0.511,0.511,0.511,0.511,0.511,0.511,0.511,0.511,0.511,0.511,0.511,0.511,0.511,0.511,0.511,0.511,0.511,0.511,0.511,0.511,0.511,0.511,0.512,0.512,0.512,0.512,0.512,0.512,0.512,0.512,0.512,0.512,0.513,0.513,0.513,0.513,0.513,0.513,0.513,0.513,0.513,0.513,0.513,0.514,0.514,0.514,0.516,0.52,0.524,0,0,0.538,0.543,0.547,0.548,0.548,0.547,0.544,0.542,0.539,0.536,0.534,0.532,0.529,0.527,0.525,0.525,0.523,0.522,0.521,0.52,0.519,0.518,0.518,0.517,0.516,0.516,0.515,0.515,0.515,0.515,0.515,0.514,0.514,0.514,0.514,0.514,0.514,0.514,0.514,0.514,0.514,0.514,0.514,0.514,0.514,0.514,0.514,0.514,0.514,0.514,0.514,0.514,0.514,0.514,0.514,0.514,0.514,0.514,0.514,0.514,0.514,0.515,0.515,0.515,0.515,0.515,0.515,0.516,0.516,0.515,0.516,0.516,0.516,0.516,0.516,0.516,0.516,0.517,0.517,0.517,0.518,0.518,0.518,0.518,0.519,0.519,0.52,0.52,0.52,0.521,0.521,0.521,0.521,0.521,0.521,0.522,0.522,0.522,0.522,0.522,0.522,0.522,0.522,0.523,0.523,0.523,0.523,0.523,0.523,0.523,0.523,0.523,0.524,0.524,0.524,0.524,0.524,0.524,0.524,0.524,0.524,0.524,0.524,0.524,0.524,0.524,0.524,0.524,0.524,0.524,0.524,0.524,0.524,0.525,0.525,0.525,0.525,0.526,0.526,0.527,0.527,0.528,0.528,0.528,0.529,0.529,0.529,0.529,0.529,0.529,0.529,0.529,0.529,0.529,0.529,0.529,0.529,0.529,0.528,0.528,0.528,0.527,0.527,0.526,0.526,0.525,0.525,0.525,0.524,0.524,0.523,0.522,0.521,0.52,0.519,0.518,0.517,0.516,0.515,0.515,0.515,0.516,0.517,0.518,0.519,0.521,0.522,0.523,0.525,0.526,0.527,0.528,0.528,0.528,0.529,0.529,0.53,0.53,0.53,0.53,0.53,0.531,0.531,0.531,0.531,0.531,0.531,0.532,0.532,0.532,0.532,0.531,0.531,0.531,0.531,0.531,0.53,0.53,0.53,0.53,0.529,0.529,0.529,0.529,0.528,0.528,0.528,0.528,0.528
0.53,0.53,0.53,0.53,0.53,0.53,0.53,0.53,0.53,0.53,0.53,0.53,0.53,0.53,0.529,0.529,0.529,0.529,0.529,0.529,0.529,0.528,0.529,0.528,0.528,0.527,0.527,0.526,0.525,0.524,0.521,0.516,0,0,0.502,0.499,0.495,0.493,0.493,0.492,0.492,0.492,0.491,0.491,0.491,0.491,0.491,0.491,0.491,0.492,0.492,0.492,0.492,0.492,0.492,0.492,0.492,0.492,0.492,0.492,0.491,0.491,0.491,0.491,0.491,0.491,0.491,0.491,0.492,0.492,0.493,0.493,0.493,0.494,0.494,0.495,0.495,0.496,0.496,0.496,0.496,0.495,0.495,0.495,0.494,0.494,0.493,0.493,0.493,0.493,0.492,0.492,0.492,0.492,0.493,0.493,0.493,0.493,0.494,0.495,0.495,0.495,0.496,0.496,0.497,0.497,0.497,0.497,0.497,0.497,0.497,0.497,0.497,0.497,0.497,0.497,0.497,0.497,0.497,0.497,0.497,0.497,0.497,0.497,0.497,0.497,0.497,0.497,0.497,0.497,0.498,0.498,0.498,0.498,0.498,0.498,0.499,0.499,0.499,0.499,0.499,0.499,0.499,0.499,0.499,0.499,0.499,0.499,0.499,0.499,0.499,0.499,0.499,0.499,0.499,0.499,0.499,0.499,0.499,0.5,0.5,0.501,0.501,0.501,0.501,0.501,0.501,0.501,0.501,0.501,0.501,0.501,0.501,0.501,0.5,0.5,0.499,0.499,0.497,0.497,0.496,0.495,0.495,0.494,0.493,0.491,0.49,0.489,0.488,0.486,0.484,0.482,0.48,0.477,0.474,0.472,0.47,0.468,0.466,0.464,0.464,0.464,0.463,0.462,0.462,0.461,0.461,0.461,0.462,0.463,0.463,0.465,0.469,0.474,0.481,0.486,0,0.494,0.497,0.499,0.501,0.501,0.502,0.502,0.503,0.504,0.504,0.504,0.504,0.505,0.505,0.505,0.505,0.505,0.505,0.505,0.505,0.505,0.506,0.506,0.506,0.506,0.506,0.507,0.507,0.507,0.508,0.508,0.508,0.508,0.508,0.509,0.509,0.509,0.509,0.51,0.51,0.51,0.51,0.51,0.51,0.51,0.51,0.51,0.51,0.51,0.51,0.511,0.511,0.511,0.511,0.511,0.511,0.511,0.51,0.51,0.511,0.511,0.511,0.511,0.511,0.511,0.511,0.511,0.511,0.511,0.511,0.511,0.511,0.511,0.511,0.511,0.511,0.511,0.512,0.512,0.512,0.512,0.512,0.512,0.512,0.512,0.513,0.513,0.513,0.515,0.52,0.524,0,0,0.538,0.543,0.548,0.548,0.548,0.547,0.545,0.542,0.539,0.536,0.534,0.532,0.529,0.527,0.525,0.524,0.523,0.522,0.521,0.52,0.519,0.518,0.517,0.516,0.516,0.515,0.515,0.514,0.514,0.514,0.514,0.514,0.514,0.514,0.514,0.514,0.514,0.513,0.513,0.513,0.513,0.513,0.513,0.513,0.513,0.513,0.513,0.513,0.513,0.513,0.513,0.513,0.513,0.513,0.513,0.513,0.513,0.513,0.513,0.513,0.514,0.514,0.514,0.514,0.514,0.514,0.514,0.514,0.515,0.514,0.515,0.515,0.515,0.515,0.515,0.515,0.516,0.516,0.516,0.516,0.517,0.517,0.517,0.518,0.518,0.518,0.518,0.519,0.519,0.519,0.52,0.52,0.52,0.52,0.521,0.521,0.521,0.521,0.521,0.521,0.521,0.521,0.521,0.521,0.521,0.522,0.522,0.522,0.522,0.522,0.522,0.522,0.522,0.523,0.523,0.523,0.523,0.523,0.523,0.523,0.523,0.523,0.523,0.523,0.523,0.523,0.523,0.523,0.523,0.523,0.523,0.523,0.523,0.523,0.524,0.524,0.525,0.525,0.525,0.526,0.526,0.527,0.527,0.527,0.528,0.528,0.528,0.528,0.528,0.528,0.528,0.528,0.528,0.528,0.528,0.528,0.528,0.528,0.527,0.527,0.527,0.526,0.526,0.525,0.525,0.525,0.525,0.524,0.524,0.523,0.523,0.522,0.521,0.52,0.519,0.518,0.517,0.516,0.515,0.515,0.515,0.515,0.516,0.517,0.518,0.519,0.52,0.521,0.523,0.524,0.525,0.526,0.527,0.527,0.528,0.528,0.529,0.529,0.529,0.53,0.53,0.53,0.53,0.53,0.53,0.53,0.531,0.531,0.531,0.531,0.531,0.53,0.53,0.53,0.53,0.53,0.53,0.53,0.529,0.529,0.529,0.528,0.528,0.528,0.528,0.527,0.527,0.527,0.527
0.53,0.53,0.53,0.53,0.53,0.53,0.53,0.53,0.529,0.529,0.529,0.529,0.529,0.529,0.529,0.528,0.528,0.528,0.528,0.528,0.528,0.528,0.528,0.527,0.527,0.527,0.526,0.525,0.525,0.524,0.52,0.515,0.511,0,0.502,0.498,0.495,0.493,0.491,0.491,0.491,0.491,0.491,0.491,0.491,0.49,0.49,0.49,0.491,0.491,0.491,0.491,0.491,0.491,0.491,0.491,0.491,0.491,0.491,0.491,0.491,0.491,0.491,0.491,0.491,0.491,0.491,0.491,0.491,0.492,0.492,0.493,0.493,0.493,0.493,0.494,0.495,0.495,0.495,0.495,0.495,0.495,0.495,0.494,0.493,0.493,0.492,0.492,0.492,0.491,0.491,0.491,0.491,0.491,0.491,0.492,0.492,0.493,0.493,0.493,0.494,0.495,0.495,0.495,0.496,0.496,0.496,0.496,0.496,0.496,0.496,0.496,0.496,0.496,0.496,0.496,0.496,0.496,0.497,0.497,0.496,0.497,0.496,0.496,0.496,0.496,0.496,0.496,0.496,0.496,0.497,0.497,0.497,0.497,0.497,0.498,0.498,0.498,0.498,0.498,0.499,0.499,0.499,0.499,0.499,0.499,0.499,0.499,0.499,0.498,0.498,0.498,0.498,0.498,0.498,0.498,0.498,0.498,0.499,0.499,0.499,0.5,0.5,0.5,0.501,0.501,0.501,0.501,0.501,0.501,0.501,0.501,0.501,0.5,0.5,0.5,0.499,0.499,0.498,0.498,0.497,0.497,0.496,0.495,0.494,0.493,0.492,0.491,0.49,0.488,0.487,0.485,0.483,0.48,0.478,0.476,0.473,0.471,0.469,0.468,0.467,0.466,0.465,0.465,0.464,0.464,0.464,0.464,0.464,0.464,0.465,0.467,0.47,0.475,0.481,0,0.49,0.494,0.497,0.499,0.501,0.501,0.502,0.502,0.503,0.503,0.504,0.504,0.504,0.504,0.504,0.504,0.504,0.505,0.504,0.504,0.504,0.504,0.505,0.504,0.505,0.505,0.505,0.506,0.506,0.506,0.506,0.506,0.507,0.507,0.507,0.508,0.508,0.508,0.509,0.509,0.509,0.509,0.509,0.509,0.509,0.509,0.509,0.509,0.509,0.509,0.509,0.509,0.51,0.51,0.51,0.51,0.51,0.509,0.509,0.51,0.509,0.509,0.509,0.51,0.51,0.51,0.51,0.51,0.51,0.51,0.51,0.51,0.51,0.51,0.51,0.51,0.511,0.511,0.511,0.511,0.511,0.511,0.511,0.511,0.511,0.511,0.512,0.512,0.513,0.516,0.52,0.525,0.53,0.535,0.539,0.544,0.548,0.548,0.548,0.547,0.545,0.542,0.539,0.536,0.534,0.532,0.529,0.526,0.525,0.524,0.523,0.521,0.521,0.519,0.518,0.518,0.517,0.516,0.515,0.514,0.514,0.514,0.514,0.514,0.514,0.513,0.513,0.513,0.513,0.513,0.512,0.512,0.512,0.512,0.512,0.512,0.512,0.512,0.512,0.512,0.512,0.512,0.512,0.512,0.512,0.512,0.512,0.512,0.512,0.512,0.512,0.512,0.512,0.512,0.513,0.513,0.513,0.513,0.513,0.513,0.514,0.514,0.514,0.514,0.514,0.514,0.514,0.514,0.514,0.515,0.515,0.515,0.515,0.515,0.516,0.516,0.516,0.517,0.517,0.517,0.518,0.518,0.518,0.518,0.518,0.519,0.519,0.519,0.519,0.519,0.519,0.52,0.52,0.52,0.52,0.52,0.52,0.52,0.521,0.521,0.521,0.521,0.521,0.521,0.521,0.521,0.521,0.521,0.522,0.522,0.522,0.522,0.522,0.522,0.522,0.522,0.522,0.522,0.522,0.522,0.522,0.522,0.522,0.522,0.522,0.522,0.522,0.522,0.523,0.523,0.524,0.524,0.525,0.525,0.525,0.525,0.526,0.526,0.527,0.527,0.527,0.527,0.527,0.527,0.527,0.527,0.527,0.527,0.527,0.527,0.527,0.527,0.527,0.526,0.526,0.526,0.525,0.525,0.525,0.525,0.524,0.524,0.523,0.523,0.522,0.521,0.521,0.52,0.519,0.518,0.517,0.516,0.515,0.514,0.514,0.514,0.514,0.515,0.516,0.517,0.518,0.519,0.521,0.522,0.524,0.525,0.525,0.526,0.527,0.527,0.528,0.528,0.528,0.528,0.529,0.529,0.529,0.53,0.53,0.53,0.53,0.53,0.53,0.53,0.53,0.53,0.53,0.53,0.53,0.529,0.529,0.528,0.528,0.528,0.527,0.527,0.527,0.527,0.527,0.526,0.526,0.526,0.526
0.529,0.529,0.529,0.529,0.529,0.529,0.529,0.529,0.528,0.528,0.528,0.528,0.528,0.528,0.528,0.527,0.527,0.528,0.527,0.527,0.527,0.527,0.527,0.527,0.526,0.526,0.525,0.525,0.525,0.524,0.521,0.516,0.511,0,0.502,0.497,0.493,0.492,0.491,0.49,0.49,0.49,0.49,0.49,0.49,0.49,0.49,0.49,0.49,0.49,0.491,0.491,0.491,0.491,0.491,0.491,0.491,0.491,0.491,0.491,0.491,0.49,0.49,0.49,0.491,0.491,0.49,0.491,0.491,0.491,0.491,0.492,0.492,0.493,0.493,0.493,0.494,0.494,0.494,0.494,0.494,0.494,0.493,0.493,0.493,0.492,0.491,0.491,0.491,0.491,0.491,0.49,0.491,0.49,0.491,0.491,0.491,0.491,0.492,0.493,0.493,0.494,0.494,0.495,0.495,0.495,0.495,0.495,0.495,0.495,0.495,0.495,0.495,0.495,0.495,0.495,0.495,0.495,0.496,0.496,0.496,0.495,0.495,0.495,0.495,0.495,0.495,0.495,0.495,0.495,0.496,0.496,0.496,0.496,0.496,0.497,0.497,0.497,0.497,0.497,0.497,0.498,0.498,0.498,0.498,0.498,0.498,0.498,0.497,0.497,0.497,0.497,0.497,0.497,0.497,0.497,0.498,0.497,0.498,0.498,0.499,0.499,0.499,0.499,0.5,0.5,0.5,0.5,0.5,0.5,0.5,0.5,0.5,0.5,0.499,0.499,0.499,0.499,0.498,0.498,0.498,0.497,0.497,0.496,0.495,0.494,0.493,0.492,0.491,0.49,0.488,0.487,0.485,0.483,0.481,0.479,0.477,0.475,0.473,0.471,0.47,0.47,0.469,0.468,0.467,0.467,0.466,0.466,0.466,0.466,0.468,0.469,0.473,0.477,0.483,0.488,0.491,0.495,0.498,0.499,0.501,0.501,0.502,0.502,0.503,0.503,0.503,0.503,0.503,0.504,0.504,0.504,0.504,0.504,0.504,0.504,0.504,0.504,0.504,0.504,0.504,0.504,0.504,0.505,0.505,0.505,0.506,0.506,0.506,0.506,0.506,0.507,0.507,0.507,0.508,0.508,0.508,0.508,0.508,0.508,0.508,0.508,0.508,0.508,0.508,0.509,0.509,0.509,0.509,0.509,0.509,0.509,0.509,0.509,0.509,0.509,0.509,0.509,0.509,0.509,0.509,0.509,0.509,0.509,0.509,0.509,0.509,0.509,0.509,0.509,0.509,0.509,0.51,0.51,0.51,0.51,0.51,0.51,0.511,0.511,0.511,0.511,0.511,0.512,0.513,0.516,0.521,0.525,0.53,0.536,0.54,0.545,0.548,0.549,0.549,0.547,0.545,0.543,0.54,0.537,0.535,0.532,0.53,0.527,0.525,0.523,0.522,0.521,0.52,0.519,0.518,0.517,0.516,0.515,0.514,0.514,0.514,0.514,0.513,0.513,0.513,0.513,0.512,0.512,0.512,0.512,0.511,0.511,0.511,0.511,0.511,0.511,0.511,0.511,0.511,0.511,0.511,0.511,0.511,0.511,0.511,0.511,0.511,0.511,0.511,0.511,0.511,0.511,0.511,0.511,0.511,0.511,0.511,0.512,0.512,0.512,0.513,0.513,0.513,0.513,0.513,0.513,0.513,0.514,0.514,0.514,0.514,0.514,0.514,0.515,0.515,0.515,0.515,0.516,0.516,0.517,0.517,0.517,0.518,0.518,0.518,0.518,0.518,0.518,0.518,0.518,0.518,0.518,0.518,0.519,0.519,0.519,0.519,0.519,0.519,0.519,0.52,0.52,0.52,0.52,0.52,0.52,0.521,0.521,0.521,0.521,0.521,0.521,0.521,0.521,0.521,0.521,0.521,0.521,0.521,0.521,0.521,0.521,0.521,0.521,0.521,0.521,0.521,0.522,0.522,0.522,0.523,0.523,0.523,0.524,0.524,0.525,0.525,0.525,0.525,0.526,0.526,0.526,0.526,0.526,0.526,0.526,0.526,0.526,0.526,0.526,0.526,0.526,0.526,0.525,0.525,0.525,0.525,0.525,0.524,0.524,0.524,0.523,0.523,0.522,0.521,0.521,0.52,0.519,0.518,0.518,0.517,0.516,0.515,0.514,0.514,0.514,0.514,0.514,0.514,0.515,0.516,0.518,0.519,0.52,0.521,0.523,0.524,0.525,0.525,0.526,0.526,0.527,0.527,0.527,0.528,0.528,0.528,0.528,0.529,0.529,0.529,0.529,0.529,0.529,0.529,0.529,0.529,0.529,0.529,0.528,0.528,0.527,0.527,0.527,0.526,0.526,0.526,0.526,0.525,0.525,0.525,0.525,0.525
0.528,0.528,0.528,0.528,0.528,0.528,0.528,0.528,0.527,0.527,0.527,0.527,0.527,0.527,0.526,0.526,0.526,0.526,0.526,0.526,0.527,0.526,0.526,0.526,0.526,0.525,0.525,0.525,0.524,0.523,0.52,0.515,0,0,0.501,0.496,0.492,0.491,0.49,0.49,0.49,0.49,0.49,0.49,0.489,0.489,0.489,0.489,0.49,0.49,0.49,0.49,0.49,0.49,0.49,0.49,0.49,0.49,0.49,0.49,0.49,0.49,0.49,0.49,0.49,0.49,0.49,0.49,0.491,0.491,0.491,0.491,0.491,0.492,0.492,0.492,0.493,0.493,0.493,0.493,0.493,0.493,0.493,0.492,0.492,0.491,0.491,0.491,0.49,0.49,0.49,0.49,0.49,0.49,0.49,0.49,0.491,0.491,0.491,0.492,0.492,0.493,0.493,0.494,0.494,0.494,0.494,0.494,0.494,0.494,0.494,0.494,0.494,0.494,0.494,0.494,0.495,0.495,0.495,0.495,0.495,0.495,0.495,0.495,0.494,0.495,0.494,0.494,0.494,0.495,0.495,0.495,0.495,0.495,0.495,0.496,0.496,0.496,0.497,0.497,0.497,0.497,0.497,0.497,0.497,0.497,0.497,0.497,0.497,0.497,0.496,0.496,0.496,0.496,0.496,0.497,0.497,0.497,0.497,0.497,0.498,0.499,0.499,0.499,0.499,0.499,0.499,0.499,0.499,0.5,0.5,0.499,0.499,0.499,0.499,0.499,0.499,0.499,0.498,0.498,0.498,0.498,0.497,0.497,0.496,0.495,0.495,0.493,0.493,0.491,0.49,0.489,0.488,0.486,0.484,0.482,0.48,0.478,0.476,0.474,0.473,0.473,0.472,0.471,0.47,0.47,0.469,0.469,0.469,0.469,0.47,0.472,0.475,0.48,0.484,0.489,0.493,0.496,0.499,0.5,0.501,0.501,0.502,0.502,0.503,0.503,0.503,0.503,0.503,0.503,0.503,0.503,0.504,0.504,0.503,0.503,0.503,0.503,0.503,0.503,0.503,0.504,0.504,0.504,0.504,0.504,0.505,0.505,0.505,0.506,0.506,0.506,0.506,0.506,0.507,0.506,0.507,0.507,0.507,0.507,0.507,0.507,0.507,0.507,0.507,0.508,0.508,0.508,0.508,0.508,0.508,0.508,0.508,0.508,0.508,0.508,0.508,0.508,0.508,0.508,0.508,0.508,0.508,0.508,0.508,0.509,0.509,0.509,0.509,0.509,0.509,0.509,0.509,0.509,0.509,0.509,0.509,0.509,0.51,0.51,0.51,0.51,0.511,0.511,0.513,0.517,0.521,0.526,0,0.536,0.541,0.545,0.549,0.549,0.549,0.547,0.546,0.543,0.54,0.537,0.535,0.532,0.53,0.527,0.525,0.523,0.522,0.521,0.52,0.518,0.518,0.517,0.516,0.515,0.514,0.514,0.513,0.513,0.513,0.512,0.512,0.512,0.512,0.511,0.511,0.511,0.511,0.511,0.511,0.51,0.51,0.51,0.51,0.51,0.51,0.51,0.51,0.51,0.51,0.51,0.51,0.51,0.51,0.51,0.51,0.51,0.51,0.51,0.51,0.51,0.511,0.511,0.511,0.511,0.511,0.511,0.511,0.511,0.512,0.512,0.512,0.512,0.512,0.513,0.513,0.513,0.513,0.514,0.514,0.514,0.514,0.514,0.515,0.515,0.515,0.516,0.516,0.516,0.516,0.516,0.517,0.517,0.517,0.517,0.517,0.517,0.517,0.517,0.518,0.518,0.518,0.518,0.518,0.518,0.518,0.518,0.518,0.518,0.519,0.519,0.519,0.519,0.519,0.519,0.52,0.52,0.52,0.52,0.52,0.52,0.52,0.52,0.52,0.52,0.52,0.52,0.52,0.52,0.521,0.521,0.521,0.521,0.521,0.521,0.521,0.521,0.522,0.522,0.522,0.523,0.523,0.523,0.524,0.524,0.525,0.525,0.525,0.525,0.525,0.525,0.525,0.525,0.525,0.525,0.525,0.525,0.525,0.525,0.525,0.525,0.525,0.525,0.524,0.524,0.524,0.523,0.523,0.522,0.522,0.521,0.521,0.521,0.52,0.519,0.518,0.518,0.517,0.516,0.515,0.514,0.514,0.513,0.513,0.513,0.513,0.514,0.514,0.515,0.517,0.518,0.52,0.521,0.522,0.523,0.524,0.525,0.525,0.526,0.526,0.526,0.526,0.527,0.527,0.527,0.528,0.528,0.528,0.528,0.528,0.528,0.528,0.528,0.528,0.528,0.527,0.527,0.527,0.526,0.526,0.526,0.525,0.525,0.525,0.525,0.525,0.525,0.525,0.525,0.524
0.527,0.527,0.527,0.527,0.527,0.527,0.527,0.527,0.526,0.526,0.526,0.526,0.526,0.525,0.525,0.525,0.525,0.525,0.525,0.525,0.526,0.525,0.525,0.525,0.525,0.525,0.524,0.524,0.523,0.523,0.52,0.515,0,0,0.5,0.495,0.491,0.49,0.489,0.489,0.489,0.489,0.488,0.488,0.488,0.488,0.488,0.488,0.489,0.489,0.489,0.489,0.489,0.489,0.49,0.49,0.49,0.49,0.49,0.49,0.49,0.49,0.49,0.49,0.49,0.49,0.49,0.49,0.49,0.491,0.491,0.491,0.491,0.491,0.491,0.491,0.492,0.491,0.492,0.492,0.492,0.491,0.491,0.491,0.491,0.491,0.49,0.49,0.49,0.49,0.49,0.49,0.49,0.489,0.49,0.49,0.49,0.49,0.491,0.491,0.491,0.492,0.493,0.493,0.493,0.493,0.493,0.493,0.493,0.493,0.493,0.493,0.493,0.493,0.493,0.493,0.494,0.494,0.494,0.494,0.494,0.494,0.494,0.494,0.494,0.493,0.493,0.493,0.493,0.494,0.494,0.494,0.494,0.495,0.495,0.495,0.495,0.495,0.496,0.496,0.496,0.496,0.497,0.496,0.496,0.496,0.496,0.496,0.496,0.496,0.495,0.495,0.495,0.495,0.495,0.496,0.496,0.497,0.497,0.497,0.497,0.498,0.498,0.498,0.499,0.499,0.499,0.499,0.499,0.499,0.499,0.499,0.499,0.499,0.498,0.498,0.498,0.498,0.498,0.498,0.498,0.498,0.498,0.497,0.497,0.496,0.495,0.495,0.493,0.493,0.491,0.49,0.489,0.488,0.486,0.485,0.483,0.481,0.479,0.477,0.476,0.475,0.474,0.473,0.472,0.471,0.471,0.471,0.471,0.471,0.472,0.475,0.478,0,0,0.49,0.494,0.497,0.499,0.501,0.501,0.501,0.502,0.502,0.502,0.503,0.503,0.503,0.503,0.503,0.503,0.503,0.503,0.503,0.503,0.503,0.502,0.502,0.502,0.503,0.503,0.503,0.503,0.503,0.503,0.504,0.504,0.504,0.504,0.505,0.505,0.505,0.505,0.506,0.506,0.506,0.506,0.506,0.506,0.506,0.506,0.506,0.506,0.506,0.506,0.506,0.507,0.507,0.507,0.507,0.507,0.507,0.507,0.507,0.507,0.507,0.507,0.507,0.507,0.507,0.507,0.507,0.507,0.507,0.507,0.507,0.507,0.508,0.507,0.507,0.507,0.507,0.508,0.508,0.508,0.508,0.508,0.509,0.509,0.509,0.509,0.509,0.51,0.511,0.513,0.517,0.521,0.526,0.532,0.536,0.541,0.546,0.548,0.549,0.549,0.547,0.546,0.544,0.541,0.539,0.536,0.533,0.53,0.527,0.525,0.523,0.522,0.521,0.519,0.518,0.517,0.516,0.515,0.514,0.514,0.513,0.513,0.513,0.512,0.512,0.512,0.511,0.511,0.511,0.511,0.51,0.51,0.51,0.509,0.509,0.509,0.509,0.509,0.509,0.509,0.509,0.509,0.509,0.509,0.509,0.509,0.509,0.509,0.509,0.509,0.509,0.509,0.509,0.509,0.509,0.509,0.51,0.51,0.51,0.51,0.51,0.511,0.511,0.511,0.511,0.511,0.511,0.511,0.512,0.512,0.512,0.512,0.513,0.513,0.513,0.514,0.514,0.514,0.514,0.514,0.515,0.515,0.515,0.515,0.515,0.516,0.516,0.516,0.516,0.516,0.516,0.516,0.516,0.516,0.517,0.517,0.517,0.517,0.517,0.517,0.517,0.517,0.518,0.518,0.518,0.518,0.518,0.518,0.518,0.518,0.519,0.519,0.519,0.519,0.519,0.519,0.519,0.519,0.519,0.519,0.519,0.519,0.519,0.519,0.519,0.52,0.52,0.52,0.52,0.52,0.521,0.521,0.521,0.521,0.522,0.522,0.522,0.523,0.523,0.523,0.524,0.524,0.524,0.524,0.524,0.525,0.525,0.525,0.525,0.524,0.524,0.524,0.524,0.524,0.524,0.524,0.524,0.523,0.523,0.523,0.522,0.522,0.521,0.521,0.521,0.521,0.52,0.519,0.519,0.518,0.518,0.517,0.516,0.515,0.514,0.514,0.513,0.513,0.512,0.512,0.512,0.512,0.514,0.515,0.517,0.518,0.52,0.521,0.522,0.523,0.524,0.525,0.525,0.525,0.525,0.525,0.526,0.526,0.526,0.527,0.527,0.527,0.527,0.527,0.528,0.527,0.527,0.527,0.527,0.526,0.526,0.526,0.525,0.525,0.525,0.525,0.524,0.524,0.524,0.524,0.524,0.523,0.523,0.523
0.527,0.527,0.527,0.526,0.526,0.526,0.526,0.526,0.525,0.525,0.525,0.525,0.525,0.525,0.525,0.525,0.525,0.525,0.525,0.525,0.525,0.525,0.525,0.525,0.524,0.524,0.524,0.523,0.522,0.522,0.519,0.515,0,0,0.5,0.495,0.491,0.489,0.489,0.488,0.488,0.488,0.488,0.488,0.488,0.487,0.487,0.488,0.488,0.488,0.488,0.488,0.488,0.488,0.489,0.489,0.489,0.489,0.489,0.489,0.489,0.489,0.489,0.489,0.489,0.489,0.49,0.49,0.49,0.49,0.49,0.49,0.49,0.49,0.49,0.491,0.491,0.491,0.491,0.491,0.491,0.491,0.491,0.49,0.49,0.49,0.49,0.49,0.489,0.489,0.489,0.489,0.489,0.489,0.489,0.489,0.489,0.49,0.49,0.491,0.491,0.491,0.491,0.492,0.492,0.492,0.492,0.492,0.492,0.492,0.492,0.492,0.492,0.492,0.492,0.492,0.493,0.493,0.493,0.493,0.493,0.493,0.493,0.493,0.493,0.493,0.493,0.493,0.493,0.493,0.493,0.493,0.494,0.494,0.494,0.494,0.495,0.495,0.495,0.495,0.495,0.495,0.495,0.495,0.495,0.495,0.495,0.495,0.495,0.495,0.495,0.495,0.495,0.495,0.495,0.495,0.495,0.496,0.496,0.496,0.497,0.497,0.497,0.498,0.498,0.498,0.498,0.498,0.498,0.498,0.498,0.498,0.498,0.498,0.498,0.498,0.497,0.497,0.497,0.497,0.498,0.497,0.497,0.497,0.497,0.497,0.496,0.495,0.494,0.493,0.493,0.492,0.491,0.49,0.489,0.487,0.485,0.483,0,0.48,0.478,0.477,0.476,0.475,0.474,0.473,0.473,0.473,0.473,0.473,0.475,0,0,0,0.488,0.491,0.495,0.497,0.499,0.5,0.501,0.501,0.502,0.502,0.502,0.502,0.502,0.502,0.502,0.502,0.502,0.502,0.503,0.502,0.502,0.502,0.502,0.502,0.502,0.502,0.502,0.502,0.502,0.502,0.503,0.503,0.503,0.503,0.504,0.504,0.504,0.504,0.505,0.504,0.505,0.505,0.505,0.505,0.505,0.505,0.505,0.505,0.505,0.505,0.506,0.506,0.506,0.506,0.506,0.506,0.506,0.506,0.506,0.506,0.506,0.506,0.506,0.506,0.506,0.506,0.506,0.506,0.506,0.506,0.506,0.506,0.507,0.506,0.506,0.506,0.506,0.506,0.507,0.507,0.507,0.507,0.508,0.508,0.508,0.509,0.509,0.509,0.51,0.511,0.514,0.518,0.522,0.527,0.532,0.536,0.541,0.546,0.548,0.549,0.549,0.548,0.547,0.545,0.542,0.54,0.537,0.535,0.532,0.529,0.526,0.524,0.521,0.52,0.519,0.518,0.517,0.516,0.515,0.514,0.514,0.513,0.512,0.512,0.512,0.511,0.511,0.511,0.51,0.51,0.51,0.509,0.509,0.509,0.509,0.509,0.509,0.509,0.509,0.508,0.508,0.508,0.508,0.508,0.508,0.508,0.508,0.508,0.508,0.508,0.508,0.509,0.509,0.509,0.509,0.509,0.509,0.509,0.509,0.509,0.509,0.509,0.51,0.51,0.51,0.51,0.51,0.511,0.511,0.511,0.511,0.511,0.511,0.512,0.512,0.512,0.513,0.513,0.513,0.513,0.514,0.514,0.514,0.514,0.514,0.515,0.515,0.515,0.515,0.515,0.515,0.515,0.515,0.515,0.515,0.515,0.516,0.516,0.516,0.516,0.516,0.516,0.516,0.517,0.517,0.517,0.517,0.518,0.518,0.518,0.518,0.518,0.518,0.518,0.518,0.518,0.518,0.518,0.518,0.518,0.518,0.518,0.518,0.518,0.518,0.519,0.519,0.519,0.519,0.519,0.519,0.519,0.52,0.52,0.52,0.521,0.521,0.521,0.521,0.522,0.522,0.522,0.523,0.523,0.523,0.523,0.523,0.523,0.523,0.523,0.523,0.523,0.524,0.523,0.523,0.523,0.523,0.523,0.522,0.522,0.522,0.521,0.521,0.521,0.521,0.52,0.52,0.519,0.519,0.518,0.518,0.517,0.517,0.516,0.515,0.514,0.513,0.512,0.512,0.511,0.511,0.511,0.511,0.511,0.513,0.514,0.516,0.518,0.519,0.521,0.522,0.523,0.524,0.524,0.524,0.524,0.525,0.525,0.525,0.525,0.526,0.526,0.526,0.527,0.527,0.527,0.526,0.526,0.526,0.526,0.525,0.525,0.525,0.525,0.524,0.524,0.524,0.523,0.523,0.523,0.523,0.522,0.522,0.522,0.522
0.526,0.526,0.525,0.525,0.525,0.525,0.525,0.525,0.525,0.525,0.525,0.525,0.524,0.524,0.524,0.524,0.524,0.524,0.524,0.524,0.524,0.524,0.524,0.524,0.523,0.523,0.523,0.522,0.522,0.521,0.519,0.515,0,0,0,0.495,0.49,0.488,0.488,0.488,0.487,0.487,0.487,0.487,0.486,0.486,0.486,0.486,0.487,0.487,0.487,0.488,0.488,0.488,0.488,0.488,0.488,0.488,0.488,0.488,0.488,0.488,0.488,0.489,0.489,0.489,0.489,0.489,0.49,0.49,0.49,0.49,0.49,0.49,0.49,0.49,0.49,0.49,0.49,0.49,0.49,0.49,0.49,0.49,0.49,0.489,0.489,0.489,0.489,0.489,0.488,0.488,0.488,0.488,0.488,0.489,0.489,0.489,0.49,0.49,0.49,0.491,0.491,0.491,0.491,0.491,0.491,0.491,0.491,0.491,0.491,0.491,0.491,0.491,0.491,0.491,0.491,0.492,0.492,0.492,0.492,0.492,0.492,0.493,0.493,0.493,0.493,0.493,0.493,0.493,0.493,0.493,0.493,0.493,0.493,0.493,0.494,0.494,0.494,0.494,0.494,0.494,0.495,0.495,0.494,0.494,0.494,0.494,0.494,0.494,0.493,0.493,0.494,0.494,0.494,0.494,0.495,0.495,0.495,0.496,0.496,0.497,0.497,0.497,0.497,0.497,0.497,0.497,0.497,0.497,0.497,0.497,0.497,0.497,0.497,0.497,0.497,0.497,0.497,0.497,0.497,0.497,0.497,0.497,0.497,0.497,0.496,0.496,0.495,0.495,0.493,0.493,0.492,0.491,0.49,0.489,0.487,0.486,0.484,0.482,0.481,0.479,0.478,0.477,0.475,0.475,0.475,0.475,0.475,0.475,0,0,0.483,0,0.49,0.493,0.495,0.498,0.499,0.5,0.501,0.501,0.501,0.502,0.502,0.502,0.502,0.502,0.502,0.502,0.502,0.502,0.502,0.501,0.501,0.501,0.501,0.501,0.501,0.501,0.502,0.501,0.501,0.502,0.502,0.502,0.502,0.502,0.503,0.503,0.503,0.503,0.504,0.504,0.504,0.504,0.504,0.504,0.504,0.504,0.504,0.504,0.504,0.504,0.504,0.505,0.505,0.505,0.505,0.505,0.505,0.505,0.505,0.505,0.505,0.505,0.505,0.505,0.505,0.505,0.505,0.505,0.505,0.505,0.505,0.505,0.506,0.506,0.506,0.506,0.506,0.506,0.506,0.506,0.506,0.506,0.507,0.507,0.507,0.508,0.509,0.509,0.51,0.511,0.514,0.518,0.522,0.527,0.532,0.536,0.541,0.545,0.548,0.548,0.548,0.547,0.547,0.545,0.543,0.54,0.538,0,0.532,0.529,0.526,0.524,0.521,0.52,0.518,0.518,0.516,0.516,0.515,0.514,0.513,0.513,0.512,0.512,0.511,0.511,0.51,0.51,0.509,0.509,0.509,0.509,0.509,0.508,0.508,0.508,0.508,0.508,0.508,0.507,0.507,0.507,0.507,0.507,0.507,0.507,0.507,0.507,0.507,0.508,0.508,0.508,0.508,0.508,0.508,0.508,0.508,0.508,0.508,0.508,0.508,0.509,0.509,0.509,0.509,0.509,0.509,0.51,0.51,0.51,0.51,0.511,0.511,0.511,0.511,0.511,0.511,0.512,0.512,0.512,0.513,0.513,0.513,0.514,0.514,0.514,0.514,0.514,0.514,0.514,0.514,0.514,0.514,0.514,0.514,0.515,0.515,0.515,0.515,0.515,0.515,0.515,0.515,0.516,0.516,0.516,0.516,0.516,0.517,0.517,0.517,0.517,0.517,0.517,0.517,0.517,0.517,0.518,0.518,0.518,0.518,0.518,0.518,0.518,0.518,0.518,0.518,0.518,0.518,0.518,0.518,0.519,0.519,0.519,0.519,0.52,0.52,0.52,0.521,0.521,0.521,0.521,0.522,0.522,0.522,0.522,0.522,0.522,0.523,0.523,0.522,0.523,0.523,0.522,0.522,0.522,0.522,0.522,0.521,0.521,0.521,0.521,0.521,0.52,0.52,0.52,0.519,0.519,0.518,0.518,0.518,0.517,0.517,0.516,0.515,0.514,0.513,0.512,0.511,0.511,0.509,0.509,0.509,0.51,0.511,0.513,0.514,0.516,0.518,0.519,0.52,0.521,0.522,0.523,0.523,0.523,0.523,0.524,0.524,0.525,0.525,0.525,0.525,0.526,0.526,0.526,0.525,0.525,0.525,0.525,0.525,0.525,0.524,0.524,0.523,0.523,0.522,0.522,0.522,0.522,0.521,0.521,0.521,0.521,0.521
0.525,0.525,0.525,0.525,0.525,0.525,0.525,0.525,0.524,0.524,0.524,0.524,0.523,0.523,0.523,0.523,0.523,0.523,0.523,0.523,0.523,0.523,0.523,0.523,0.523,0.523,0.522,0.522,0.521,0.521,0.518,0.515,0.51,0,0.499,0.494,0.49,0.488,0.488,0.487,0.486,0.486,0.486,0.486,0.486,0.485,0.485,0.486,0.486,0.486,0.486,0.486,0.487,0.487,0.487,0.487,0.487,0.487,0.488,0.488,0.488,0.488,0.488,0.488,0.488,0.488,0.488,0.489,0.489,0.489,0.489,0.489,0.489,0.489,0.489,0.489,0.489,0.489,0.489,0.489,0.489,0.489,0.489,0.489,0.489,0.488,0.488,0.489,0.488,0.488,0.488,0.488,0.488,0.488,0.488,0.488,0.488,0.489,0.489,0.489,0.49,0.49,0.49,0.49,0.49,0.49,0.49,0.49,0.49,0.49,0.49,0.49,0.49,0.49,0.49,0.49,0.491,0.491,0.491,0.491,0.491,0.491,0.492,0.492,0.492,0.492,0.492,0.492,0.492,0.492,0.492,0.492,0.492,0.492,0.493,0.493,0.493,0.493,0.493,0.493,0.493,0.493,0.494,0.493,0.493,0.493,0.493,0.493,0.493,0.493,0.493,0.493,0.493,0.493,0.493,0.494,0.494,0.494,0.495,0.495,0.495,0.496,0.496,0.497,0.497,0.497,0.497,0.497,0.497,0.497,0.497,0.496,0.496,0.496,0.496,0.496,0.496,0.496,0.496,0.496,0.496,0.496,0.496,0.496,0.496,0.496,0.496,0.495,0.495,0.495,0.494,0.493,0.493,0.492,0.491,0.49,0.489,0.487,0.486,0.484,0.482,0.481,0.48,0.478,0.477,0.477,0.477,0.477,0.477,0.478,0.48,0,0.485,0.488,0.491,0.494,0.496,0.498,0.499,0.5,0.5,0.501,0.501,0.501,0.501,0.502,0.502,0.502,0.501,0.501,0.501,0.501,0.501,0.501,0.501,0.501,0.501,0.501,0.501,0.501,0.501,0.501,0.501,0.501,0.501,0.501,0.501,0.501,0.502,0.502,0.502,0.502,0.502,0.502,0.503,0.503,0.503,0.503,0.503,0.503,0.503,0.503,0.503,0.503,0.503,0.504,0.504,0.504,0.504,0.504,0.504,0.504,0.504,0.504,0.504,0.504,0.504,0.504,0.504,0.504,0.504,0.504,0.504,0.504,0.504,0.504,0.504,0.504,0.504,0.504,0.504,0.505,0.505,0.505,0.505,0.505,0.506,0.506,0.507,0.507,0.508,0.509,0.51,0.512,0.515,0.519,0.523,0.527,0.532,0.537,0.541,0.545,0.548,0.548,0.547,0.547,0.546,0.545,0.544,0.542,0.539,0.536,0,0.53,0.527,0.524,0.522,0.519,0.518,0.517,0.516,0.515,0.514,0.514,0.513,0.512,0.512,0.511,0.511,0.51,0.509,0.509,0.509,0.509,0.508,0.508,0.508,0.507,0.507,0.507,0.507,0.507,0.506,0.506,0.506,0.506,0.506,0.506,0.506,0.506,0.506,0.507,0.507,0.507,0.507,0.507,0.507,0.507,0.507,0.507,0.507,0.507,0.507,0.507,0.508,0.508,0.508,0.508,0.508,0.509,0.509,0.509,0.509,0.509,0.509,0.51,0.51,0.51,0.51,0.511,0.511,0.511,0.511,0.511,0.511,0.512,0.512,0.513,0.513,0.513,0.513,0.513,0.513,0.514,0.513,0.513,0.514,0.514,0.514,0.514,0.514,0.514,0.514,0.514,0.514,0.514,0.514,0.515,0.515,0.515,0.515,0.515,0.515,0.516,0.516,0.516,0.516,0.516,0.516,0.516,0.516,0.516,0.517,0.517,0.517,0.517,0.517,0.517,0.517,0.517,0.517,0.517,0.518,0.518,0.518,0.518,0.518,0.518,0.519,0.519,0.519,0.52,0.52,0.52,0.521,0.521,0.521,0.521,0.521,0.521,0.522,0.522,0.522,0.522,0.522,0.522,0.522,0.521,0.521,0.521,0.521,0.521,0.521,0.521,0.52,0.52,0.52,0.519,0.519,0.519,0.518,0.518,0.518,0.518,0.517,0.517,0.517,0.516,0.515,0.514,0.513,0.512,0.511,0.51,0.509,0.508,0.509,0.509,0.51,0.511,0.513,0.514,0.516,0.518,0.519,0.52,0.521,0.521,0.521,0.522,0.522,0.522,0.523,0.524,0.524,0.524,0.525,0.525,0.525,0.525,0.525,0.525,0.524,0.524,0.524,0.523,0.523,0.523,0.522,0.522,0.521,0.521,0.521,0.521,0.521,0.521,0.521,0.521,0.52
0.524,0.524,0.524,0.524,0.524,0.524,0.524,0.524,0.523,0.523,0.523,0.523,0.522,0.522,0.522,0.522,0.522,0.522,0.522,0.522,0.522,0.522,0.522,0.522,0.522,0.522,0.521,0.521,0.521,0.521,0.518,0.515,0.51,0,0,0,0.49,0.487,0.486,0.486,0.485,0.484,0.484,0.484,0.484,0.484,0.484,0.484,0.484,0.485,0.485,0.485,0.486,0.486,0.486,0.486,0.486,0.486,0.486,0.487,0.487,0.487,0.487,0.488,0.488,0.488,0.488,0.488,0.488,0.488,0.488,0.488,0.488,0.488,0.488,0.488,0.488,0.488,0.488,0.488,0.488,0.488,0.488,0.488,0.488,0.488,0.488,0.488,0.488,0.488,0.488,0.487,0.487,0.487,0.488,0.488,0.488,0.488,0.488,0.488,0.488,0.489,0.489,0.489,0.49,0.49,0.49,0.489,0.489,0.489,0.489,0.489,0.489,0.489,0.489,0.49,0.49,0.49,0.49,0.49,0.491,0.491,0.491,0.491,0.491,0.491,0.491,0.491,0.491,0.491,0.491,0.491,0.491,0.492,0.492,0.492,0.492,0.492,0.492,0.492,0.493,0.493,0.493,0.493,0.493,0.493,0.492,0.492,0.492,0.492,0.492,0.492,0.492,0.492,0.493,0.493,0.493,0.494,0.494,0.495,0.495,0.495,0.495,0.496,0.496,0.496,0.496,0.496,0.496,0.496,0.496,0.496,0.495,0.495,0.495,0.495,0.495,0.495,0.495,0.495,0.495,0.495,0.495,0.495,0.496,0.495,0.495,0.495,0.495,0.494,0.494,0.493,0.493,0.493,0.492,0.491,0.49,0.489,0.487,0.486,0.484,0.483,0.481,0.48,0.479,0.478,0.478,0.478,0.479,0.48,0.482,0.484,0.487,0.49,0.492,0.495,0.496,0.497,0.499,0,0.5,0.501,0.501,0.501,0.501,0.501,0.501,0.501,0.501,0.501,0.501,0.501,0.501,0.501,0.501,0.501,0.501,0.501,0.501,0.501,0.501,0.501,0.501,0.501,0.501,0.501,0.501,0.501,0.501,0.501,0.502,0.501,0.502,0.502,0.502,0.502,0.501,0.501,0.502,0.502,0.502,0.502,0.502,0.502,0.502,0.502,0.502,0.503,0.503,0.503,0.503,0.503,0.504,0.504,0.504,0.504,0.504,0.503,0.504,0.504,0.504,0.504,0.504,0.504,0.504,0.504,0.504,0.503,0.503,0.503,0.503,0.504,0.504,0.504,0.504,0.504,0.505,0.506,0.506,0.507,0.507,0.509,0.51,0.512,0.516,0.52,0.524,0.528,0.533,0.538,0.542,0.545,0.547,0.547,0.547,0.547,0.546,0.545,0.544,0.543,0.54,0.537,0.534,0.53,0.527,0.524,0.522,0.519,0.518,0.517,0.515,0.515,0.514,0.513,0.513,0.512,0.511,0.511,0.51,0.51,0.509,0.509,0.508,0.508,0.507,0.507,0.507,0.506,0.506,0.506,0.506,0.506,0.506,0.506,0.506,0.506,0.506,0.506,0.506,0.506,0.506,0.506,0.506,0.506,0.506,0.506,0.506,0.506,0.506,0.506,0.506,0.506,0.506,0.507,0.507,0.507,0.507,0.507,0.508,0.508,0.508,0.508,0.509,0.509,0.509,0.509,0.509,0.509,0.509,0.51,0.51,0.51,0.51,0.511,0.511,0.511,0.511,0.511,0.512,0.512,0.512,0.512,0.512,0.513,0.512,0.513,0.513,0.513,0.513,0.513,0.513,0.514,0.514,0.514,0.514,0.514,0.514,0.514,0.514,0.514,0.514,0.514,0.515,0.515,0.515,0.515,0.515,0.515,0.515,0.516,0.516,0.516,0.516,0.516,0.516,0.516,0.516,0.516,0.516,0.516,0.516,0.516,0.517,0.517,0.517,0.518,0.518,0.518,0.518,0.518,0.518,0.519,0.519,0.519,0.52,0.52,0.52,0.521,0.521,0.521,0.521,0.521,0.521,0.521,0.521,0.521,0.521,0.521,0.521,0.521,0.52,0.52,0.52,0.52,0.519,0.519,0.519,0.519,0.518,0.518,0.518,0.518,0.518,0.518,0.517,0.517,0.516,0.516,0.515,0.514,0.513,0.511,0.51,0.509,0.509,0.508,0.507,0.508,0.509,0.51,0.511,0.513,0.514,0.516,0.517,0.518,0.519,0.52,0.52,0.521,0.521,0.521,0.522,0.522,0.523,0.523,0.524,0.524,0.524,0.524,0.524,0.524,0.523,0.523,0.523,0.522,0.522,0.522,0.521,0.521,0.521,0.521,0.52,0.52,0.52,0.52,0.52,0.52,0.52
0.523,0.523,0.523,0.523,0.523,0.523,0.523,0.523,0.522,0.522,0.522,0.522,0.521,0.521,0.521,0.521,0.521,0.521,0.521,0.521,0.522,0.521,0.521,0.521,0.521,0.521,0.521,0.521,0.52,0.52,0.518,0.516,0.51,0,0.499,0,0.49,0.487,0.486,0.485,0.484,0.483,0.483,0.483,0.483,0.483,0.483,0.483,0.483,0.484,0.484,0.484,0.484,0.485,0.485,0.486,0.486,0.486,0.486,0.486,0.486,0.486,0.487,0.487,0.487,0.487,0.488,0.488,0.488,0.488,0.488,0.488,0.488,0.488,0.488,0.488,0.488,0.488,0.488,0.488,0.488,0.487,0.487,0.487,0.488,0.488,0.488,0.488,0.487,0.487,0.487,0.487,0.487,0.486,0.487,0.487,0.487,0.487,0.487,0.488,0.488,0.488,0.488,0.488,0.488,0.488,0.488,0.488,0.488,0.488,0.488,0.488,0.488,0.488,0.488,0.488,0.489,0.489,0.489,0.49,0.49,0.49,0.49,0.491,0.491,0.491,0.491,0.491,0.491,0.491,0.491,0.491,0.491,0.491,0.491,0.491,0.491,0.491,0.491,0.492,0.492,0.492,0.492,0.492,0.492,0.492,0.491,0.491,0.491,0.491,0.491,0.491,0.491,0.491,0.492,0.492,0.493,0.493,0.493,0.494,0.494,0.495,0.495,0.495,0.495,0.495,0.495,0.495,0.495,0.496,0.495,0.495,0.495,0.495,0.495,0.494,0.494,0.494,0.494,0.494,0.495,0.495,0.495,0.495,0.495,0.495,0.495,0.495,0.494,0.494,0.494,0.494,0.494,0.493,0.493,0.492,0.491,0.49,0.489,0.488,0.486,0.484,0.483,0.482,0.481,0.48,0.48,0.481,0.481,0.482,0.484,0.486,0.489,0.491,0.493,0.495,0.496,0.497,0,0,0,0.5,0.5,0.5,0.5,0.5,0.501,0.5,0.5,0.5,0.5,0.5,0.5,0.5,0.5,0.5,0.5,0.5,0.5,0.5,0.5,0.5,0.5,0.5,0.5,0.5,0.501,0.501,0.501,0.501,0.501,0.501,0.501,0.501,0.501,0.501,0.501,0.501,0.501,0.501,0.501,0.501,0.501,0.501,0.501,0.501,0.501,0.501,0.501,0.501,0.501,0.502,0.502,0.502,0.502,0.503,0.503,0.502,0.503,0.503,0.503,0.503,0.503,0.503,0.503,0.503,0.503,0.502,0.502,0.502,0.502,0.503,0.503,0.503,0.503,0.504,0.504,0.505,0.506,0.506,0.507,0.509,0.51,0.513,0.517,0.521,0.525,0.529,0.534,0.538,0.542,0.545,0.547,0.547,0.547,0.547,0.546,0.546,0.545,0.543,0.54,0.537,0.535,0,0.528,0.525,0.522,0.519,0.518,0.516,0.515,0.514,0.514,0.513,0.512,0.511,0.511,0.51,0.51,0.509,0.508,0.508,0.507,0.507,0.506,0.506,0.506,0.506,0.506,0.505,0.505,0.505,0.505,0.505,0.505,0.505,0.505,0.505,0.505,0.505,0.505,0.505,0.505,0.506,0.506,0.506,0.506,0.506,0.506,0.506,0.506,0.506,0.506,0.506,0.506,0.506,0.507,0.507,0.507,0.507,0.507,0.507,0.508,0.508,0.508,0.508,0.508,0.509,0.509,0.509,0.509,0.509,0.51,0.51,0.51,0.511,0.511,0.511,0.511,0.511,0.511,0.511,0.512,0.512,0.512,0.512,0.512,0.512,0.513,0.513,0.513,0.513,0.513,0.513,0.513,0.513,0.513,0.514,0.514,0.514,0.514,0.514,0.514,0.514,0.514,0.514,0.514,0.515,0.515,0.515,0.515,0.515,0.515,0.515,0.515,0.515,0.515,0.515,0.515,0.515,0.516,0.516,0.516,0.516,0.516,0.517,0.517,0.517,0.518,0.518,0.518,0.518,0.518,0.519,0.519,0.519,0.52,0.52,0.52,0.52,0.521,0.521,0.521,0.521,0.52,0.52,0.52,0.52,0.52,0.52,0.519,0.519,0.519,0.519,0.519,0.518,0.518,0.518,0.518,0.518,0.518,0.518,0.517,0.517,0.517,0.516,0.516,0.516,0.515,0.514,0.512,0.511,0.51,0.509,0.508,0.507,0.507,0.507,0.508,0.509,0.51,0.511,0.512,0.514,0.515,0.516,0.518,0.518,0.519,0.519,0.52,0.52,0.521,0.521,0.522,0.522,0.522,0.523,0.523,0.523,0.523,0.523,0.522,0.522,0.522,0.521,0.521,0.521,0.521,0.52,0.52,0.52,0.52,0.519,0.519,0.519,0.519,0.519,0.519
0.522,0.522,0.522,0.522,0.522,0.522,0.522,0.522,0.521,0.521,0.521,0.521,0.521,0.521,0.521,0.521,0.521,0.521,0.521,0.521,0.521,0.521,0.521,0.521,0.521,0.521,0.521,0.52,0.52,0.519,0.518,0.516,0.511,0,0.499,0,0.491,0.487,0.485,0.484,0.483,0.483,0.482,0.482,0.482,0.482,0.482,0.482,0.482,0.483,0.483,0.483,0.484,0.484,0.484,0.484,0.485,0.485,0.485,0.485,0.486,0.486,0.486,0.486,0.486,0.486,0.486,0.487,0.487,0.487,0.487,0.487,0.487,0.487,0.487,0.487,0.487,0.487,0.487,0.487,0.487,0.486,0.486,0.487,0.487,0.487,0.487,0.487,0.487,0.487,0.486,0.486,0.486,0.486,0.486,0.486,0.486,0.486,0.486,0.486,0.487,0.487,0.487,0.487,0.488,0.488,0.488,0.488,0.488,0.488,0.488,0.488,0.488,0.487,0.488,0.488,0.488,0.488,0.489,0.489,0.489,0.49,0.49,0.49,0.49,0.49,0.49,0.49,0.491,0.491,0.491,0.491,0.491,0.491,0.491,0.491,0.491,0.491,0.491,0.491,0.491,0.491,0.491,0.491,0.491,0.491,0.491,0.491,0.491,0.491,0.491,0.491,0.491,0.491,0.491,0.491,0.492,0.493,0.493,0.493,0.493,0.494,0.494,0.495,0.495,0.495,0.495,0.495,0.495,0.495,0.495,0.495,0.495,0.494,0.494,0.493,0.494,0.493,0.493,0.493,0.494,0.493,0.494,0.494,0.494,0.494,0.494,0.494,0.494,0.494,0.494,0.494,0.493,0.493,0.493,0.493,0.492,0.491,0.49,0.488,0.487,0.486,0.485,0.483,0.483,0.482,0.482,0.483,0.483,0.484,0.486,0.488,0.49,0.491,0.493,0.494,0.495,0.496,0.497,0.498,0.498,0.499,0.499,0.499,0.499,0.5,0.5,0.499,0.499,0.499,0.499,0.5,0.5,0.5,0.5,0.5,0.5,0.5,0.5,0.5,0.5,0.499,0.499,0.499,0.499,0.5,0.5,0.5,0.5,0.5,0.5,0.501,0.501,0.501,0.5,0.501,0.5,0.5,0.5,0.5,0.5,0.5,0.5,0.5,0.5,0.5,0.5,0.5,0.5,0.5,0.5,0.501,0.501,0.501,0.501,0.502,0.502,0.502,0.502,0.502,0.502,0.502,0.502,0.502,0.501,0.501,0.501,0.501,0.501,0.501,0.501,0.502,0.502,0.502,0.502,0.503,0.504,0.504,0.505,0.506,0.507,0.508,0.51,0.513,0.517,0.521,0.525,0.53,0.534,0.538,0.542,0.545,0.546,0.546,0.546,0.547,0.546,0.546,0.545,0.544,0.541,0.538,0.535,0.532,0.529,0.525,0.522,0.519,0.518,0.516,0.514,0.514,0.513,0.513,0.512,0.511,0.511,0.51,0.509,0.509,0.508,0.507,0.506,0.506,0.506,0.506,0.505,0.505,0.505,0.504,0.504,0.504,0.504,0.504,0.504,0.504,0.504,0.504,0.504,0.504,0.504,0.504,0.504,0.505,0.505,0.505,0.505,0.505,0.505,0.506,0.506,0.506,0.506,0.506,0.506,0.506,0.506,0.506,0.506,0.506,0.506,0.507,0.507,0.507,0.507,0.507,0.507,0.508,0.508,0.508,0.508,0.509,0.509,0.509,0.509,0.51,0.51,0.51,0.51,0.511,0.511,0.511,0.511,0.511,0.511,0.511,0.512,0.512,0.512,0.512,0.512,0.512,0.513,0.513,0.513,0.513,0.513,0.513,0.513,0.513,0.513,0.513,0.514,0.514,0.514,0.514,0.514,0.514,0.514,0.514,0.514,0.514,0.514,0.514,0.514,0.514,0.514,0.515,0.515,0.515,0.515,0.515,0.515,0.515,0.515,0.516,0.516,0.516,0.517,0.517,0.517,0.518,0.518,0.518,0.518,0.519,0.519,0.519,0.519,0.52,0.52,0.52,0.52,0.52,0.52,0.519,0.519,0.519,0.519,0.519,0.518,0.518,0.518,0.518,0.518,0.518,0.518,0.518,0.518,0.517,0.517,0.517,0.517,0.517,0.516,0.516,0.515,0.515,0.515,0.514,0.512,0.511,0.511,0.509,0.509,0.508,0.507,0.507,0.508,0.508,0.509,0.509,0.511,0.512,0.514,0.514,0.516,0.517,0.517,0.518,0.518,0.519,0.519,0.52,0.521,0.521,0.521,0.521,0.522,0.522,0.522,0.522,0.521,0.521,0.521,0.521,0.521,0.52,0.52,0.52,0.519,0.519,0.519,0.519,0.519,0.518,0.518,0.518,0.518
0.521,0.521,0.521,0.521,0.521,0.521,0.521,0.521,0.521,0.521,0.521,0.52,0.52,0.52,0.52,0.52,0.52,0.52,0.52,0.521,0.52,0.521,0.521,0.521,0.52,0.52,0.52,0.52,0.519,0.519,0.518,0.516,0.511,0.505,0.5,0.495,0.491,0.487,0.485,0.483,0.483,0.482,0.481,0.481,0.481,0.481,0.481,0.481,0.481,0.482,0.482,0.483,0.483,0.483,0.483,0.484,0.484,0.484,0.484,0.484,0.485,0.485,0.485,0.485,0.485,0.485,0.486,0.486,0.486,0.486,0.486,0.486,0.486,0.486,0.486,0.486,0.486,0.486,0.486,0.486,0.486,0.486,0.486,0.486,0.486,0.486,0.486,0.486,0.486,0.486,0.486,0.486,0.486,0.486,0.486,0.486,0.486,0.486,0.486,0.486,0.486,0.486,0.486,0.486,0.487,0.487,0.487,0.487,0.487,0.487,0.487,0.487,0.487,0.487,0.487,0.487,0.488,0.488,0.488,0.488,0.488,0.488,0.489,0.49,0.49,0.49,0.49,0.49,0.49,0.49,0.49,0.49,0.49,0.49,0.49,0.49,0.49,0.49,0.49,0.491,0.491,0.491,0.49,0.49,0.49,0.49,0.49,0.49,0.49,0.49,0.49,0.49,0.49,0.49,0.491,0.491,0.491,0.492,0.492,0.493,0.493,0.493,0.494,0.494,0.494,0.494,0.494,0.494,0.494,0.495,0.495,0.494,0.494,0.493,0.493,0.493,0.493,0.493,0.493,0.493,0.493,0.493,0.493,0.493,0.493,0.493,0.493,0.493,0.493,0.493,0.493,0.494,0.493,0.493,0.493,0.493,0.492,0.491,0.49,0.489,0.488,0.487,0.486,0.485,0.484,0.484,0.484,0.484,0.485,0.486,0.487,0.488,0.49,0.491,0.492,0.493,0.494,0.495,0.496,0.497,0.497,0.497,0.498,0.498,0.499,0.499,0.499,0.499,0.499,0.499,0.499,0.499,0.499,0.499,0.499,0.499,0.499,0.499,0.499,0.499,0.499,0.499,0.499,0.499,0.499,0.499,0.499,0.5,0.5,0.5,0.5,0.5,0.5,0.5,0.5,0.5,0.499,0.499,0.499,0.499,0.499,0.499,0.499,0.499,0.499,0.499,0.499,0.499,0.499,0.499,0.499,0.5,0.5,0.501,0.501,0.501,0.501,0.501,0.501,0.501,0.501,0.501,0.501,0.501,0.501,0.501,0.501,0.501,0.501,0.501,0.501,0.501,0.501,0.501,0.502,0.502,0.503,0.504,0.504,0.506,0.506,0.509,0.51,0.514,0.518,0.521,0.525,0.53,0.534,0.538,0.542,0.544,0.546,0.546,0.546,0.546,0.546,0.546,0.545,0.544,0.542,0.539,0.536,0,0.529,0.525,0.522,0.519,0.517,0.515,0.514,0.514,0.513,0.512,0.511,0.511,0.51,0.509,0.509,0.508,0.507,0.506,0.506,0.506,0.505,0.505,0.504,0.504,0.504,0.504,0.503,0.503,0.503,0.503,0.503,0.503,0.503,0.503,0.503,0.503,0.504,0.504,0.504,0.504,0.504,0.504,0.504,0.504,0.505,0.505,0.505,0.505,0.505,0.505,0.506,0.506,0.506,0.506,0.506,0.506,0.506,0.506,0.506,0.506,0.506,0.506,0.506,0.507,0.507,0.507,0.507,0.508,0.508,0.508,0.508,0.509,0.509,0.509,0.509,0.509,0.509,0.51,0.51,0.51,0.511,0.511,0.511,0.511,0.511,0.512,0.512,0.512,0.512,0.512,0.512,0.512,0.512,0.512,0.512,0.513,0.513,0.513,0.513,0.513,0.513,0.513,0.513,0.513,0.513,0.514,0.514,0.514,0.514,0.514,0.514,0.514,0.514,0.514,0.514,0.514,0.514,0.514,0.514,0.515,0.515,0.515,0.515,0.515,0.516,0.516,0.516,0.517,0.517,0.518,0.518,0.518,0.518,0.518,0.518,0.519,0.519,0.519,0.519,0.519,0.519,0.518,0.518,0.518,0.518,0.518,0.518,0.518,0.518,0.518,0.517,0.517,0.517,0.517,0.517,0.517,0.516,0.516,0.516,0.516,0.516,0.515,0.515,0.515,0.514,0.514,0.512,0.511,0.511,0.509,0.509,0.508,0.507,0.506,0.507,0.507,0.508,0.508,0.509,0.511,0.511,0.513,0.514,0.515,0.515,0.516,0.517,0.518,0.518,0.519,0.519,0.52,0.52,0.521,0.521,0.521,0.521,0.521,0.521,0.521,0.52,0.52,0.52,0.519,0.519,0.519,0.519,0.518,0.518,0.518,0.518,0.518,0.518,0.518,0.518
0.52,0.52,0.52,0.52,0.52,0.52,0.52,0.52,0.52,0.52,0.52,0.52,0.52,0.519,0.519,0.519,0.519,0.52,0.52,0.52,0.52,0.52,0.52,0.52,0.52,0.52,0.519,0.519,0.519,0,0,0,0.512,0,0.501,0,0.491,0.487,0.484,0.483,0.482,0.481,0.481,0.481,0.481,0.48,0.48,0.481,0.481,0.481,0.481,0.482,0.482,0.482,0.483,0.483,0.483,0.483,0.483,0.484,0.484,0.484,0.484,0.484,0.484,0.484,0.484,0.485,0.485,0.485,0.485,0.485,0.485,0.485,0.485,0.485,0.485,0.485,0.484,0.484,0.485,0.485,0.485,0.485,0.485,0.485,0.485,0.485,0.485,0.485,0.486,0.485,0.485,0.485,0.485,0.485,0.485,0.485,0.485,0.485,0.485,0.485,0.486,0.486,0.486,0.486,0.486,0.486,0.486,0.486,0.486,0.486,0.487,0.487,0.487,0.487,0.487,0.487,0.487,0.487,0.488,0.488,0.488,0.489,0.489,0.489,0.49,0.49,0.49,0.49,0.49,0.49,0.49,0.49,0.49,0.49,0.49,0.49,0.49,0.49,0.49,0.49,0.49,0.49,0.49,0.49,0.49,0.49,0.49,0.49,0.49,0.49,0.49,0.49,0.49,0.49,0.491,0.491,0.491,0.492,0.492,0.493,0.493,0.493,0.493,0.494,0.494,0.494,0.494,0.494,0.494,0.493,0.493,0.493,0.492,0.492,0.492,0.492,0.492,0.492,0.492,0.492,0.492,0.492,0.493,0.493,0.493,0.493,0.493,0.493,0.493,0.493,0.493,0.493,0.493,0.493,0.492,0.492,0.491,0.49,0.489,0.488,0.487,0.486,0.486,0.485,0.485,0.486,0.486,0.487,0.488,0.489,0.49,0.491,0.492,0.493,0.493,0.495,0.495,0.496,0.496,0.497,0.497,0.497,0.497,0.498,0.498,0.498,0.498,0.498,0.498,0.499,0.499,0.499,0.499,0.499,0.499,0.499,0.499,0.499,0.498,0.498,0.498,0.499,0.499,0.499,0.499,0.499,0.499,0.499,0.499,0.499,0.499,0.499,0.499,0.499,0.499,0.499,0.499,0.499,0.499,0.499,0.498,0.498,0.498,0.498,0.498,0.498,0.498,0.499,0.499,0.499,0.499,0.5,0.5,0.5,0.501,0.501,0.501,0.501,0.501,0.501,0.501,0.501,0.5,0.5,0.5,0.5,0.5,0.5,0.5,0.5,0.5,0.501,0.501,0.502,0.502,0.503,0.504,0.505,0.506,0.508,0.51,0.514,0.518,0.522,0.526,0.53,0.535,0.539,0.542,0.544,0.545,0.545,0.545,0.545,0.545,0.545,0.545,0.544,0.542,0.539,0.536,0.533,0.53,0.526,0.523,0.519,0.517,0.515,0.514,0.513,0.512,0.512,0.511,0.51,0.509,0.509,0.508,0.507,0.506,0.506,0.505,0.505,0.504,0.504,0.504,0.504,0.503,0.503,0.502,0.502,0.502,0.502,0.502,0.502,0.502,0.502,0.502,0.502,0.503,0.503,0.503,0.503,0.504,0.504,0.504,0.504,0.504,0.504,0.504,0.504,0.505,0.505,0.505,0.505,0.505,0.505,0.505,0.506,0.506,0.506,0.506,0.506,0.506,0.506,0.506,0.506,0.506,0.506,0.506,0.507,0.507,0.507,0.507,0.507,0.508,0.508,0.508,0.508,0.509,0.509,0.509,0.509,0.51,0.51,0.51,0.511,0.511,0.511,0.511,0.511,0.511,0.511,0.511,0.511,0.511,0.512,0.512,0.512,0.512,0.512,0.512,0.512,0.512,0.512,0.512,0.512,0.512,0.512,0.513,0.513,0.513,0.513,0.513,0.513,0.513,0.513,0.513,0.513,0.513,0.514,0.514,0.514,0.514,0.514,0.514,0.515,0.515,0.515,0.516,0.516,0.517,0.517,0.517,0.518,0.518,0.518,0.518,0.518,0.518,0.518,0.518,0.518,0.518,0.518,0.518,0.518,0.518,0.518,0.517,0.517,0.517,0.517,0.517,0.517,0.516,0.516,0.516,0.516,0.516,0.516,0.516,0.515,0.515,0.515,0.515,0.514,0.514,0.513,0.512,0.511,0.511,0.51,0.509,0.508,0.507,0.506,0.506,0.506,0.506,0.507,0.508,0.509,0.509,0.51,0.511,0.513,0.514,0.514,0.516,0.516,0.517,0.518,0.518,0.518,0.519,0.519,0.519,0.52,0.52,0.52,0.52,0.519,0.519,0.519,0.519,0.519,0.518,0.518,0.518,0.518,0.518,0.518,0.518,0.518,0.518,0.518,0.518
0.519,0.519,0.519,0.519,0.519,0.519,0.519,0.519,0.519,0.519,0.519,0.519,0.519,0.519,0.519,0.519,0.519,0.519,0.519,0.519,0.519,0.519,0.519,0.519,0.519,0.519,0.519,0.518,0.518,0.518,0,0,0.512,0.506,0.501,0.496,0.492,0.487,0.484,0.483,0.482,0.481,0.481,0.48,0.48,0.48,0.48,0.48,0.48,0.48,0.481,0.481,0.481,0.481,0.482,0.482,0.482,0.482,0.483,0.483,0.483,0.483,0.483,0.483,0.483,0.484,0.484,0.484,0.484,0.484,0.484,0.484,0.484,0.484,0.484,0.484,0.484,0.484,0.484,0.484,0.484,0.484,0.484,0.484,0.484,0.484,0.484,0.484,0.485,0.485,0.485,0.485,0.484,0.484,0.484,0.484,0.484,0.484,0.484,0.484,0.484,0.484,0.485,0.485,0.485,0.485,0.485,0.485,0.486,0.486,0.486,0.486,0.486,0.486,0.486,0.486,0.486,0.486,0.486,0.486,0.487,0.487,0.487,0.488,0.488,0.488,0.489,0.489,0.489,0.49,0.49,0.49,0.489,0.49,0.49,0.49,0.49,0.49,0.49,0.49,0.49,0.49,0.489,0.489,0.489,0.489,0.489,0.489,0.489,0.489,0.49,0.49,0.49,0.49,0.49,0.49,0.49,0.49,0.491,0.491,0.491,0.492,0.493,0.493,0.493,0.493,0.493,0.493,0.493,0.493,0.493,0.493,0.493,0.492,0.492,0.491,0.491,0.491,0.491,0.491,0.491,0.491,0.491,0.491,0.492,0.492,0.492,0.492,0.492,0.492,0.493,0.493,0.493,0.493,0.493,0.493,0.492,0.492,0.491,0.49,0.49,0.489,0.488,0.487,0.487,0.487,0.487,0.487,0.488,0.488,0.489,0.49,0.491,0.491,0.492,0.493,0.493,0.494,0.495,0.495,0.495,0.495,0.496,0.496,0.496,0.497,0.497,0.497,0.497,0.497,0.497,0.498,0.498,0.498,0.498,0.498,0.498,0.498,0.498,0.497,0.497,0.497,0.497,0.497,0.497,0.498,0.498,0.498,0.498,0.498,0.498,0.498,0.498,0.498,0.498,0.498,0.498,0.498,0.498,0.498,0.498,0.498,0.498,0.497,0.497,0.497,0.497,0.497,0.497,0.498,0.498,0.499,0.499,0.499,0.499,0.5,0.5,0.5,0.5,0.5,0.5,0.5,0.5,0.5,0.5,0.499,0.499,0.499,0.499,0.499,0.499,0.5,0.5,0.5,0.501,0.501,0.502,0.503,0.504,0.505,0.506,0.509,0.51,0.514,0.518,0.522,0.526,0.53,0.535,0.539,0.542,0.544,0.544,0.545,0.545,0.545,0.545,0.545,0.545,0.544,0.542,0.539,0.537,0.534,0.53,0.527,0.523,0.52,0.517,0.515,0.514,0.513,0.512,0.511,0.511,0.51,0.509,0.508,0.507,0.506,0.506,0.505,0.505,0.504,0.504,0.504,0.503,0.503,0.502,0.502,0.501,0.501,0.501,0.501,0.501,0.501,0.501,0.501,0.501,0.502,0.502,0.502,0.502,0.502,0.503,0.503,0.503,0.503,0.504,0.504,0.504,0.504,0.504,0.504,0.504,0.505,0.505,0.505,0.505,0.505,0.505,0.505,0.505,0.505,0.505,0.505,0.505,0.505,0.506,0.506,0.506,0.506,0.506,0.506,0.506,0.506,0.507,0.507,0.507,0.507,0.508,0.508,0.508,0.509,0.509,0.509,0.509,0.51,0.51,0.51,0.51,0.511,0.511,0.511,0.511,0.511,0.511,0.511,0.511,0.511,0.511,0.511,0.511,0.511,0.511,0.511,0.511,0.511,0.511,0.511,0.511,0.511,0.512,0.512,0.512,0.512,0.512,0.512,0.512,0.512,0.512,0.513,0.513,0.513,0.514,0.514,0.514,0.514,0.514,0.515,0.515,0.515,0.516,0.516,0.517,0.517,0.517,0.518,0.518,0.518,0.518,0.518,0.518,0.518,0.518,0.518,0.517,0.517,0.517,0.517,0.517,0.517,0.516,0.516,0.516,0.516,0.516,0.516,0.516,0.515,0.515,0.515,0.515,0.515,0.515,0.514,0.514,0.514,0.514,0.513,0.512,0.511,0.511,0.51,0.509,0.508,0.507,0.506,0.506,0.506,0.506,0.505,0.506,0.507,0.507,0.508,0.509,0.511,0.511,0.513,0.514,0.514,0.515,0.516,0.517,0.518,0.518,0.518,0.518,0.518,0.518,0.518,0.518,0.518,0.518,0.518,0.518,0.518,0.518,0.518,0.518,0.518,0.518,0.518,0.518,0.517,0.517,0.517,0.517
0.518,0.518,0.518,0.518,0.518,0.518,0.519,0.519,0.519,0.519,0.518,0.518,0.518,0.518,0.518,0.518,0.518,0.518,0.519,0.518,0.519,0.519,0.519,0.519,0.518,0.519,0.518,0.518,0.518,0.517,0.516,0.515,0.512,0.506,0,0,0.492,0.488,0.484,0.482,0.481,0.481,0.48,0.48,0.48,0.48,0.48,0.48,0.48,0.48,0.48,0.481,0.481,0.481,0.481,0.481,0.481,0.481,0.482,0.482,0.482,0.482,0.482,0.482,0.483,0.483,0.483,0.483,0.483,0.483,0.483,0.483,0.483,0.483,0.483,0.483,0.483,0.483,0.483,0.483,0.483,0.483,0.483,0.484,0.484,0.484,0.484,0.484,0.484,0.484,0.484,0.484,0.484,0.484,0.484,0.484,0.484,0.484,0.484,0.484,0.484,0.484,0.484,0.484,0.484,0.484,0.485,0.485,0.485,0.485,0.485,0.485,0.485,0.486,0.486,0.486,0.486,0.486,0.486,0.486,0.486,0.486,0.486,0.487,0.487,0.488,0.488,0.488,0.488,0.489,0.489,0.489,0.489,0.489,0.489,0.489,0.489,0.489,0.489,0.489,0.489,0.489,0.489,0.489,0.489,0.489,0.489,0.489,0.489,0.489,0.489,0.49,0.49,0.49,0.49,0.49,0.49,0.49,0.49,0.491,0.491,0.491,0.492,0.492,0.493,0.493,0.493,0.493,0.493,0.493,0.493,0.493,0.492,0.492,0.491,0.491,0.491,0.491,0.491,0.491,0.491,0.491,0.491,0.491,0.491,0.491,0.491,0.491,0.492,0.492,0.492,0.493,0.492,0.492,0.493,0.492,0.492,0.492,0.491,0.491,0.49,0.49,0.489,0.488,0.488,0.488,0.488,0.488,0.489,0.489,0.49,0.49,0.491,0.491,0.492,0.492,0.493,0.493,0.494,0.495,0.495,0.495,0.495,0.495,0.495,0.495,0.496,0.496,0.496,0.496,0.497,0.497,0.497,0.497,0.497,0.497,0.497,0.497,0.497,0.496,0.496,0.497,0.497,0.497,0.497,0.497,0.497,0.497,0.497,0.497,0.497,0.497,0.497,0.497,0.497,0.497,0.497,0.497,0.497,0.497,0.497,0.497,0.497,0.497,0.497,0.497,0.497,0.497,0.497,0.497,0.497,0.498,0.498,0.499,0.499,0.499,0.499,0.499,0.499,0.499,0.499,0.499,0.499,0.499,0.499,0.499,0.499,0.499,0.499,0.499,0.499,0.499,0.499,0.5,0.501,0.501,0.502,0.503,0.504,0.505,0.506,0.508,0.511,0.515,0.519,0.523,0.527,0.531,0.536,0.539,0.542,0.543,0.544,0.544,0.544,0.544,0.544,0.544,0.544,0.543,0.541,0.539,0.536,0.534,0.531,0.527,0.524,0.521,0.518,0.515,0.513,0.512,0.512,0.511,0.51,0.509,0.509,0.508,0.507,0.506,0.505,0.505,0.504,0.504,0.503,0.503,0.502,0.501,0.501,0.501,0.501,0.501,0.501,0.5,0.5,0.5,0.501,0.501,0.501,0.501,0.501,0.501,0.501,0.501,0.502,0.502,0.502,0.502,0.503,0.503,0.503,0.503,0.504,0.504,0.504,0.504,0.504,0.504,0.504,0.504,0.504,0.504,0.504,0.504,0.504,0.504,0.504,0.504,0.505,0.505,0.505,0.505,0.505,0.506,0.506,0.506,0.506,0.506,0.506,0.506,0.507,0.507,0.507,0.507,0.508,0.508,0.509,0.509,0.509,0.509,0.509,0.51,0.51,0.51,0.51,0.51,0.51,0.51,0.51,0.51,0.51,0.51,0.51,0.51,0.51,0.51,0.51,0.51,0.51,0.51,0.511,0.511,0.511,0.511,0.511,0.511,0.511,0.511,0.511,0.511,0.511,0.511,0.512,0.512,0.512,0.513,0.513,0.514,0.514,0.514,0.514,0.515,0.515,0.516,0.516,0.516,0.517,0.517,0.517,0.517,0.517,0.517,0.517,0.517,0.517,0.517,0.517,0.516,0.516,0.516,0.516,0.516,0.516,0.516,0.516,0.515,0.515,0.515,0.515,0.515,0.515,0.515,0.514,0.514,0.514,0.514,0.514,0.514,0.514,0.513,0.512,0.511,0.511,0.51,0.509,0.508,0.507,0.506,0.506,0.505,0.504,0.504,0.504,0.505,0.506,0.506,0.507,0.509,0.509,0.511,0.512,0.513,0.514,0.515,0.516,0.516,0.516,0.517,0.517,0.517,0.518,0.518,0.518,0.518,0.517,0.517,0.517,0.517,0.517,0.517,0.517,0.517,0.517,0.517,0.517,0.517,0.517,0.517,0.517
0.518,0.518,0.518,0.518,0.518,0.518,0.518,0.518,0.518,0.518,0.518,0.518,0.518,0.518,0.518,0.518,0.518,0.518,0.518,0.518,0.518,0.518,0.518,0.518,0.518,0.518,0.518,0.518,0.518,0.517,0.516,0.515,0.512,0.506,0,0,0.493,0.488,0.484,0.482,0.481,0.48,0.48,0.48,0.48,0.479,0.48,0.48,0.48,0.48,0.48,0.48,0.48,0.48,0.48,0.481,0.481,0.481,0.481,0.481,0.481,0.481,0.481,0.481,0.482,0.482,0.482,0.483,0.483,0.483,0.483,0.483,0.483,0.483,0.483,0.483,0.483,0.482,0.482,0.482,0.482,0.483,0.483,0.483,0.483,0.483,0.483,0.483,0.483,0.484,0.484,0.483,0.484,0.483,0.484,0.483,0.483,0.483,0.483,0.483,0.483,0.483,0.484,0.484,0.484,0.484,0.484,0.484,0.484,0.484,0.484,0.484,0.484,0.484,0.485,0.485,0.485,0.485,0.485,0.485,0.485,0.485,0.486,0.486,0.486,0.487,0.487,0.488,0.488,0.488,0.488,0.488,0.488,0.488,0.488,0.488,0.488,0.488,0.488,0.488,0.488,0.489,0.488,0.488,0.489,0.489,0.489,0.489,0.489,0.489,0.489,0.489,0.49,0.489,0.489,0.489,0.489,0.49,0.49,0.49,0.49,0.491,0.491,0.491,0.492,0.492,0.493,0.493,0.493,0.492,0.492,0.492,0.492,0.491,0.491,0.491,0.49,0.49,0.491,0.491,0.491,0.491,0.49,0.491,0.491,0.491,0.491,0.491,0.491,0.491,0.491,0.492,0.492,0.492,0.492,0.492,0.492,0.492,0.491,0.491,0.491,0.49,0.49,0.49,0.489,0.489,0.489,0.489,0.49,0.49,0.49,0.491,0.491,0.492,0.492,0.492,0.493,0.493,0.493,0.494,0.494,0.494,0.494,0.494,0.494,0.495,0.495,0.495,0.495,0.495,0.496,0.496,0.496,0.496,0.496,0.496,0.496,0.496,0.496,0.495,0.495,0.495,0.495,0.496,0.496,0.496,0.496,0.496,0.496,0.496,0.496,0.496,0.496,0.496,0.497,0.497,0.497,0.497,0.497,0.497,0.497,0.497,0.496,0.496,0.496,0.496,0.496,0.496,0.496,0.497,0.497,0.497,0.497,0.498,0.498,0.498,0.498,0.499,0.499,0.499,0.499,0.499,0.499,0.499,0.499,0.499,0.499,0.499,0.498,0.499,0.499,0.499,0.499,0.499,0.5,0.501,0.501,0.502,0.504,0.505,0.507,0.509,0.511,0.515,0.52,0.525,0.529,0.532,0.536,0.539,0.541,0.542,0.543,0.543,0.543,0.543,0.543,0.543,0.543,0.543,0.541,0.539,0.537,0.535,0,0.528,0.525,0.521,0.518,0.515,0.513,0.512,0.511,0.51,0.51,0.509,0.508,0.507,0.506,0.506,0.505,0.504,0.504,0.503,0.503,0.502,0.501,0.501,0.501,0.5,0.5,0.5,0.499,0.499,0.499,0.499,0.499,0.5,0.5,0.5,0.5,0.5,0.501,0.501,0.501,0.501,0.501,0.501,0.502,0.502,0.502,0.502,0.502,0.503,0.503,0.503,0.503,0.503,0.503,0.503,0.503,0.503,0.503,0.503,0.503,0.503,0.504,0.504,0.504,0.504,0.504,0.504,0.504,0.505,0.505,0.505,0.505,0.505,0.506,0.506,0.506,0.506,0.506,0.506,0.507,0.507,0.507,0.508,0.508,0.508,0.509,0.509,0.509,0.509,0.509,0.509,0.509,0.509,0.509,0.509,0.509,0.509,0.509,0.509,0.509,0.509,0.509,0.509,0.509,0.509,0.509,0.509,0.51,0.51,0.51,0.51,0.51,0.51,0.51,0.51,0.51,0.511,0.511,0.511,0.511,0.512,0.512,0.513,0.513,0.514,0.514,0.514,0.514,0.515,0.515,0.516,0.516,0.516,0.516,0.516,0.516,0.516,0.516,0.516,0.516,0.516,0.516,0.516,0.516,0.515,0.515,0.515,0.515,0.515,0.515,0.515,0.515,0.514,0.514,0.514,0.514,0.514,0.514,0.514,0.514,0.514,0.513,0.513,0.513,0.512,0.512,0.511,0.511,0.51,0.509,0.508,0.507,0.506,0.505,0.504,0.504,0.503,0.503,0.503,0.504,0.504,0.505,0.506,0.508,0.509,0.511,0.511,0.512,0.514,0.514,0.515,0.515,0.516,0.516,0.516,0.516,0.516,0.516,0.516,0.516,0.516,0.516,0.516,0.516,0.516,0.516,0.516,0.516,0.516,0.516,0.516,0.516,0.516,0.516
0.517,0.517,0.517,0.517,0.517,0.517,0.517,0.517,0.517,0.517,0.517,0.517,0.517,0.518,0.518,0.517,0.517,0.517,0.518,0.518,0.518,0.518,0.518,0.518,0.518,0.518,0.518,0.517,0.517,0.516,0.516,0.515,0.512,0.507,0.502,0,0.493,0.488,0.484,0.482,0.481,0.481,0.48,0.48,0.48,0.479,0.479,0.479,0.48,0.48,0.48,0.48,0.48,0.48,0.48,0.48,0.48,0.48,0.48,0.48,0.48,0.48,0.48,0.481,0.481,0.481,0.481,0.482,0.482,0.482,0.482,0.482,0.482,0.482,0.482,0.482,0.482,0.482,0.482,0.482,0.482,0.482,0.482,0.483,0.483,0.483,0.483,0.483,0.483,0.483,0.483,0.483,0.483,0.483,0.483,0.483,0.483,0.483,0.483,0.483,0.483,0.483,0.483,0.483,0.483,0.483,0.483,0.483,0.483,0.484,0.484,0.484,0.484,0.484,0.484,0.484,0.484,0.484,0.484,0.484,0.484,0.484,0.485,0.485,0.485,0.486,0.486,0.487,0.487,0.487,0.488,0.488,0.487,0.488,0.488,0.488,0.488,0.488,0.488,0.488,0.488,0.488,0.488,0.488,0.488,0.488,0.488,0.488,0.488,0.489,0.489,0.489,0.489,0.489,0.489,0.489,0.489,0.489,0.489,0.489,0.49,0.49,0.49,0.491,0.491,0.491,0.492,0.492,0.492,0.492,0.492,0.491,0.491,0.491,0.491,0.49,0.49,0.49,0.49,0.49,0.49,0.49,0.49,0.49,0.49,0.49,0.491,0.491,0.491,0.491,0.491,0.491,0.491,0.492,0.492,0.492,0.492,0.492,0.492,0.491,0.491,0.491,0.491,0.49,0.49,0.49,0.49,0.49,0.49,0.491,0.491,0.491,0.491,0.492,0.492,0.492,0.493,0.493,0.493,0.493,0.493,0.493,0.493,0.493,0.493,0.494,0.494,0.494,0.495,0.495,0.495,0.495,0.495,0.495,0.495,0.495,0.495,0.495,0.495,0.495,0.495,0.495,0.495,0.495,0.495,0.495,0.495,0.495,0.495,0.495,0.495,0.495,0.495,0.495,0.495,0.496,0.496,0.496,0.496,0.496,0.496,0.496,0.496,0.496,0.496,0.496,0.496,0.496,0.496,0.496,0.496,0.496,0.497,0.497,0.497,0.497,0.497,0.497,0.498,0.498,0.498,0.498,0.498,0.498,0.498,0.498,0.498,0.498,0.498,0.498,0.499,0.499,0.499,0.499,0.5,0.5,0.501,0.502,0.503,0.505,0.507,0.51,0.512,0.517,0.521,0.525,0.53,0.533,0.536,0.539,0.541,0.542,0.542,0.542,0.542,0.542,0.542,0.542,0.542,0.542,0.541,0.539,0.537,0.535,0.532,0.529,0.525,0.522,0.519,0.517,0.514,0.512,0.511,0.51,0.509,0.509,0.508,0.507,0.506,0.505,0.504,0.504,0.503,0.502,0.502,0.501,0.501,0.5,0.5,0.499,0.499,0.499,0.499,0.499,0.499,0.499,0.499,0.499,0.499,0.499,0.499,0.499,0.5,0.5,0.5,0.501,0.501,0.501,0.501,0.501,0.501,0.501,0.501,0.501,0.501,0.502,0.502,0.502,0.502,0.502,0.502,0.502,0.502,0.502,0.502,0.502,0.503,0.503,0.503,0.503,0.504,0.504,0.504,0.504,0.504,0.504,0.504,0.505,0.505,0.505,0.505,0.505,0.506,0.506,0.506,0.506,0.507,0.507,0.507,0.507,0.507,0.508,0.508,0.508,0.508,0.508,0.508,0.508,0.508,0.508,0.508,0.508,0.508,0.508,0.508,0.508,0.508,0.508,0.508,0.508,0.508,0.509,0.509,0.509,0.509,0.509,0.509,0.509,0.509,0.509,0.509,0.51,0.51,0.511,0.511,0.511,0.512,0.512,0.513,0.513,0.513,0.514,0.514,0.514,0.514,0.515,0.515,0.515,0.515,0.516,0.516,0.516,0.515,0.515,0.515,0.515,0.515,0.515,0.515,0.515,0.515,0.514,0.514,0.514,0.514,0.514,0.514,0.514,0.514,0.514,0.514,0.514,0.514,0.513,0.513,0.513,0.513,0.513,0.512,0.512,0.511,0.511,0.51,0.51,0.509,0.508,0.507,0.506,0.505,0.504,0.503,0.502,0.502,0.501,0.502,0.502,0.503,0.504,0.506,0.507,0.509,0.51,0.511,0.512,0.513,0.514,0.514,0.514,0.515,0.515,0.515,0.515,0.515,0.515,0.515,0.515,0.515,0.515,0.515,0.515,0.515,0.515,0.515,0.515,0.515,0.515,0.515,0.515,0.515
0.516,0.516,0.516,0.516,0.516,0.516,0.516,0.516,0.516,0.516,0.516,0.516,0.517,0.517,0.517,0.517,0.517,0.517,0.517,0.517,0.517,0.517,0.517,0.517,0.517,0.518,0.517,0.517,0.516,0.516,0.515,0.514,0.512,0.508,0.503,0,0.494,0.489,0.484,0.482,0.481,0.481,0.48,0.48,0.48,0.479,0.479,0.48,0.48,0.48,0.48,0.48,0.48,0.48,0.48,0.48,0.479,0.48,0.479,0.479,0.479,0.48,0.48,0.48,0.48,0.48,0.48,0.481,0.481,0.481,0.482,0.482,0.482,0.482,0.482,0.482,0.481,0.481,0.481,0.481,0.481,0.481,0.482,0.482,0.482,0.482,0.482,0.482,0.483,0.483,0.483,0.483,0.483,0.483,0.483,0.483,0.482,0.482,0.482,0.482,0.482,0.482,0.482,0.482,0.482,0.482,0.483,0.483,0.483,0.483,0.483,0.483,0.483,0.483,0.483,0.483,0.483,0.483,0.483,0.483,0.483,0.484,0.484,0.484,0.484,0.485,0.485,0.486,0.486,0.486,0.487,0.487,0.487,0.487,0.487,0.487,0.487,0.487,0.487,0.487,0.487,0.487,0.487,0.487,0.488,0.488,0.488,0.488,0.488,0.488,0.488,0.488,0.488,0.488,0.488,0.488,0.488,0.488,0.488,0.488,0.489,0.489,0.49,0.49,0.49,0.491,0.491,0.491,0.491,0.491,0.491,0.491,0.491,0.49,0.49,0.49,0.49,0.49,0.49,0.49,0.49,0.49,0.49,0.49,0.49,0.49,0.49,0.49,0.49,0.49,0.491,0.491,0.491,0.491,0.491,0.491,0.492,0.491,0.492,0.491,0.491,0.491,0.491,0.491,0.491,0.491,0.491,0.491,0.491,0.491,0.491,0.491,0.491,0.492,0.492,0.492,0.493,0.493,0.493,0.493,0.493,0.493,0.493,0.493,0.493,0.493,0.493,0.493,0.494,0.494,0.495,0.495,0.495,0.495,0.495,0.495,0.495,0.494,0.494,0.494,0.494,0.494,0.494,0.494,0.494,0.494,0.494,0.494,0.494,0.494,0.494,0.494,0.494,0.495,0.495,0.495,0.495,0.495,0.495,0.495,0.495,0.495,0.495,0.495,0.495,0.495,0.495,0.495,0.495,0.495,0.495,0.495,0.496,0.496,0.496,0.496,0.497,0.497,0.497,0.497,0.497,0.497,0.497,0.497,0.497,0.497,0.498,0.498,0.498,0.498,0.498,0.499,0.499,0.499,0.499,0.5,0.501,0.503,0.504,0.506,0.508,0.511,0.514,0.518,0.523,0.527,0.53,0.534,0.536,0.539,0.54,0.541,0.541,0.541,0.541,0.541,0.541,0.541,0.541,0.541,0.54,0.539,0.537,0.535,0.532,0.53,0.526,0,0.519,0.517,0.514,0.512,0.51,0.51,0.509,0.508,0.507,0.506,0.506,0.505,0.504,0.503,0.503,0.502,0.501,0.501,0.5,0.499,0.499,0.499,0.498,0.498,0.498,0.498,0.498,0.498,0.498,0.498,0.498,0.499,0.499,0.499,0.499,0.499,0.499,0.499,0.5,0.5,0.5,0.5,0.5,0.501,0.501,0.501,0.501,0.501,0.501,0.501,0.501,0.501,0.501,0.501,0.501,0.501,0.501,0.502,0.502,0.502,0.502,0.503,0.503,0.503,0.503,0.504,0.504,0.504,0.504,0.504,0.504,0.504,0.504,0.504,0.504,0.505,0.505,0.505,0.506,0.506,0.506,0.506,0.506,0.506,0.506,0.507,0.507,0.507,0.507,0.507,0.507,0.507,0.507,0.507,0.507,0.507,0.507,0.507,0.507,0.507,0.507,0.507,0.507,0.507,0.508,0.508,0.508,0.508,0.508,0.508,0.508,0.508,0.509,0.509,0.509,0.509,0.51,0.511,0.511,0.511,0.512,0.512,0.512,0.513,0.513,0.514,0.514,0.514,0.514,0.514,0.514,0.514,0.514,0.515,0.515,0.514,0.514,0.514,0.514,0.514,0.514,0.514,0.514,0.514,0.514,0.514,0.514,0.514,0.514,0.513,0.513,0.513,0.513,0.513,0.513,0.513,0.513,0.513,0.512,0.512,0.512,0.511,0.511,0.511,0.511,0.51,0.509,0.508,0.506,0.506,0.505,0.504,0.502,0.501,0.501,0.5,0.501,0.501,0.502,0.502,0.504,0.505,0.507,0.508,0.51,0.511,0.512,0.513,0.513,0.514,0.514,0.514,0.514,0.514,0.514,0.514,0.514,0.514,0.514,0.514,0.514,0.514,0.514,0.514,0.514,0.515,0.515,0.515,0.515,0.515,0.515
0.516,0.516,0.516,0.516,0.516,0.516,0.516,0.516,0.516,0.516,0.516,0.516,0.516,0.516,0.516,0.516,0.516,0.516,0.516,0.516,0.516,0.516,0.517,0.517,0.517,0.516,0.516,0.516,0.516,0.515,0.515,0.514,0.513,0.509,0.504,0,0.495,0.49,0.485,0.483,0.481,0.481,0.48,0.48,0.479,0.48,0.479,0.479,0.479,0.479,0.479,0.479,0.479,0.479,0.479,0.479,0.479,0.479,0.478,0.478,0.478,0.479,0.479,0.479,0.479,0.48,0.48,0.48,0.481,0.481,0.481,0.481,0.481,0.481,0.481,0.481,0.481,0.481,0.481,0.481,0.481,0.481,0.481,0.481,0.481,0.482,0.482,0.482,0.482,0.482,0.482,0.482,0.482,0.482,0.482,0.482,0.482,0.481,0.481,0.481,0.481,0.481,0.481,0.481,0.481,0.481,0.482,0.482,0.482,0.482,0.482,0.482,0.482,0.482,0.482,0.482,0.483,0.482,0.482,0.482,0.483,0.483,0.483,0.483,0.483,0.484,0.484,0.484,0.485,0.486,0.486,0.486,0.486,0.486,0.486,0.486,0.486,0.486,0.486,0.486,0.486,0.486,0.487,0.487,0.487,0.487,0.488,0.488,0.488,0.488,0.488,0.488,0.488,0.488,0.488,0.488,0.488,0.488,0.488,0.488,0.488,0.488,0.489,0.489,0.489,0.49,0.49,0.49,0.49,0.49,0.49,0.49,0.49,0.49,0.49,0.49,0.49,0.49,0.49,0.49,0.49,0.49,0.49,0.49,0.49,0.49,0.49,0.49,0.49,0.49,0.49,0.49,0.491,0.491,0.491,0.491,0.491,0.491,0.491,0.491,0.491,0.491,0.491,0.491,0.491,0.491,0.491,0.491,0.491,0.491,0.491,0.492,0.492,0.492,0.492,0.492,0.493,0.493,0.493,0.493,0.492,0.492,0.492,0.492,0.492,0.492,0.493,0.493,0.493,0.493,0.493,0.494,0.494,0.494,0.494,0.494,0.493,0.493,0.493,0.493,0.493,0.493,0.493,0.493,0.493,0.493,0.493,0.493,0.493,0.493,0.493,0.493,0.493,0.493,0.493,0.494,0.494,0.494,0.494,0.494,0.495,0.495,0.495,0.495,0.495,0.495,0.495,0.495,0.495,0.495,0.495,0.495,0.495,0.495,0.495,0.495,0.495,0.496,0.496,0.496,0.496,0.496,0.496,0.497,0.497,0.497,0.497,0.497,0.497,0.498,0.498,0.498,0.498,0.499,0.499,0.5,0.501,0.503,0.504,0.506,0.509,0.512,0.515,0.52,0.524,0.528,0.531,0.534,0.536,0.538,0.539,0.54,0.54,0.54,0.54,0.54,0.54,0.54,0.54,0.54,0.539,0.539,0.537,0.535,0.533,0.53,0.526,0,0.52,0.517,0.514,0.512,0.51,0.509,0.509,0.508,0.507,0.506,0.505,0.504,0.504,0.503,0.502,0.501,0.501,0.5,0.499,0.499,0.498,0.498,0.498,0.497,0.497,0.497,0.497,0.497,0.497,0.497,0.497,0.497,0.498,0.498,0.498,0.499,0.499,0.499,0.499,0.499,0.499,0.499,0.499,0.499,0.5,0.5,0.5,0.5,0.5,0.5,0.5,0.5,0.5,0.5,0.5,0.501,0.501,0.501,0.501,0.501,0.501,0.502,0.502,0.502,0.503,0.503,0.503,0.503,0.503,0.503,0.503,0.503,0.503,0.503,0.504,0.504,0.504,0.504,0.504,0.505,0.505,0.505,0.505,0.505,0.506,0.506,0.506,0.506,0.506,0.506,0.506,0.506,0.506,0.506,0.506,0.506,0.506,0.506,0.506,0.506,0.506,0.506,0.506,0.506,0.506,0.506,0.506,0.506,0.507,0.507,0.507,0.507,0.508,0.508,0.508,0.509,0.509,0.509,0.51,0.51,0.511,0.511,0.511,0.511,0.512,0.512,0.512,0.513,0.513,0.513,0.514,0.514,0.514,0.514,0.514,0.514,0.514,0.514,0.514,0.514,0.514,0.514,0.513,0.513,0.513,0.513,0.513,0.513,0.513,0.513,0.513,0.513,0.513,0.512,0.512,0.512,0.512,0.512,0.512,0.511,0.511,0.511,0.511,0.511,0.51,0.509,0.509,0.508,0.506,0.505,0.504,0.503,0.502,0.501,0.5,0.499,0.5,0.5,0.501,0.501,0.502,0.504,0.506,0.507,0.508,0.509,0.51,0.511,0.512,0.512,0.513,0.513,0.513,0.513,0.514,0.514,0.514,0.514,0.514,0.514,0.514,0.514,0.514,0.514,0.514,0.514,0.514,0.514,0.514,0.514,0.514
