0,0,0,0,0,0,0,0,0,0,0,0,0,0,0,0,0,0,0,0,0,0,0,0,0,0,0,0,0,0,0,0,0,0,0,0,0,0,0,0,0,0,0,0,0,0,0,0,0,0,0,0,0,0.359,0.359,0.359,0.359,0.36,0.36,0.359,0.36,0.359,0.359,0.359,0,0,0.359,0.36,0.36,0.36,0.36,0.36,0.36,0,0,0.361,0.361,0.361,0.361,0.361,0.362,0.362,0.362,0.363,0.363,0.363,0.363,0.363,0.364,0.364,0.364,0.365,0.365,0.365,0.365,0.366,0.366,0.366,0.366,0.366,0.367,0.367,0.367,0.367,0.367,0.367,0.368,0.368,0.368,0.368,0.369,0.369,0.369,0.369,0.369,0.37,0.37,0.371,0.371,0.371,0.372,0.372,0.372,0.372,0.372,0.373,0.373,0.373,0.373,0.373,0.373,0.373,0.373,0.374,0.374,0.374,0.374,0.374,0.374,0.374,0.374,0.375,0.375,0.375,0.376,0.376,0.376,0.377,0.377,0.377,0.378,0.378,0.378,0.378,0.379,0.379,0.379,0.379,0.379,0.379,0.38,0.38,0.38,0.38,0.38,0.38,0.381,0.381,0.381,0.381,0.381,0.382,0.382,0.382,0.382,0.383,0.383,0.383,0.383,0.384,0.384,0.384,0.384,0.385,0.385,0.385,0.385,0.385,0.386,0.386,0.386,0.386,0.386,0.387,0.387,0.387,0.388,0.388,0.388,0.388,0.388,0.389,0.389,0.389,0.389,0.389,0.39,0.39,0.39,0.39,0.391,0.391,0.391,0.391,0.391,0.392,0.392,0.392,0.393,0.393,0.393,0.394,0.394,0.394,0.395,0.395,0.395,0.395,0.395,0.395,0.395,0.395,0.396,0.396,0.396,0.396,0.396,0.397,0.397,0.398,0.398,0.398,0.398,0.399,0.399,0.399,0.4,0.4,0.401,0.401,0.401,0.401,0.401,0.401,0.401,0.401,0.402,0.402,0.402,0.402,0.402,0.403,0.403,0.403,0.403,0.404,0.404,0.404,0.405,0.405,0.405,0.406,0.406,0.406,0.406,0.407,0.407,0.407,0.408,0.408,0.408,0.409,0.409,0.41,0.41,0.41,0.41,0.411,0.411,0.411,0.412,0.412,0.412,0.412,0.412,0.413,0.413,0.413,0.413,0.414,0.414,0.414,0.414,0.414,0.414,0.415,0.415,0.415,0.415,0.415,0.416,0.416,0.417,0.417,0.417,0.417,0.417,0.418,0.418,0.418,0.418,0.418,0.418,0.419,0.419,0.419,0.419,0.419,0.42,0.42,0.421,0.421,0.421,0.421,0.422,0.422,0.423,0.423,0.423,0.423,0.424,0.424,0.425,0.425,0.425,0.425,0.425,0.426,0.426,0.426,0.426,0.426,0.427,0.427,0.427,0.428,0.428,0.428,0.429,0.429,0.43,0.43,0.43,0.431,0.431,0.431,0.432,0.432,0.432,0.433,0.433,0.433,0.433,0.434,0.434,0.434,0.434,0.434,0.434,0.434,0.434,0.433,0.431,0.43,0.428,0,0.425,0.423,0.421,0.419,0.419,0.417,0.417,0.416,0.415,0.415,0.414,0.414,0.413,0.413,0.412,0.412,0.411,0.411,0.41,0.41,0.409,0.409,0.409,0.409,0.409,0.409,0.409,0.409,0.409,0.409,0.409,0.409,0.409,0.409,0.409,0.409,0.409,0.409,0.41,0.41,0.41,0.41,0.41,0.411,0.412,0.412,0.412,0.413,0.413,0.413,0.414,0.414,0.414,0.414,0.415,0.415,0.415,0.415,0.416,0.416,0.416,0.416,0.417,0.417,0.417,0.417,0.418,0.418,0.419,0.419,0.419,0.419,0.42,0.42,0.42,0.421,0.421,0.421,0.422,0.422,0.422,0.423,0.423,0.423,0.423,0.423,0.423,0.424,0.424,0.424,0.424,0.424,0.425,0.425,0.425,0.425,0.425,0.425,0.426,0.426,0.427,0.427,0.428,0.428,0.428,0.429,0.429,0.429,0.43,0.43,0.43,0.431,0.431,0.431,0.432,0.432,0.433,0.433,0.433,0.434,0.434,0.434,0.435,0.435,0.435,0.436,0.436,0.437,0.437,0.437,0.437,0.438,0.438,0.438,0.438,0.439,0.439,0.439,0.439,0.439,0.439,0.439,0.439,0.439,0.438,0.438,0.437,0.436,0.436,0.435,0.434,0.434,0.433,0.432,0.431,0.43,0.429,0.428,0.428,0.427,0.426,0.425,0.425,0.425,0.424
0,0,0,0,0,0,0,0,0,0,0,0,0,0,0,0,0,0,0,0,0,0,0,0,0,0,0,0,0,0,0,0,0,0,0,0,0,0,0,0,0,0,0,0,0,0,0,0,0,0,0,0,0,0,0.359,0.358,0.359,0.359,0.359,0.359,0.359,0.359,0.359,0.359,0.359,0.359,0.359,0.359,0.359,0.359,0.36,0.36,0.36,0,0,0.36,0.361,0.361,0.361,0.361,0.361,0.361,0.362,0.362,0.362,0.363,0.363,0.363,0.363,0.363,0.364,0.364,0.364,0.364,0.365,0.365,0.365,0.366,0.366,0.366,0.366,0.366,0.366,0.367,0.367,0.367,0.367,0.367,0.368,0.368,0.368,0.368,0.368,0.369,0.369,0.369,0.37,0.37,0.37,0.371,0.371,0.371,0.372,0.372,0.372,0.372,0.372,0.372,0.372,0.372,0.372,0.373,0.373,0.373,0.373,0.373,0.374,0.374,0.374,0.374,0.374,0.374,0.375,0.375,0.375,0.376,0.376,0.376,0.376,0.377,0.377,0.378,0.378,0.378,0.378,0.378,0.378,0.378,0.378,0.379,0.379,0.379,0.38,0.38,0.38,0.38,0.38,0.38,0.38,0.381,0.381,0.381,0.381,0.381,0.382,0.382,0.382,0.383,0.383,0.383,0.383,0.384,0.384,0.384,0.385,0.385,0.385,0.385,0.385,0.385,0.385,0.385,0.386,0.386,0.386,0.387,0.387,0.387,0.387,0.388,0.388,0.388,0.388,0.389,0.389,0.389,0.389,0.389,0.39,0.39,0.39,0.39,0.391,0.391,0.391,0.391,0.392,0.392,0.392,0.393,0.393,0.393,0.393,0.394,0.394,0.394,0.394,0.394,0.395,0.395,0.395,0.395,0.395,0.395,0.396,0.396,0.396,0.396,0.397,0.397,0.398,0.398,0.398,0.398,0.399,0.399,0.399,0.399,0.4,0.4,0.4,0.4,0.4,0.4,0.401,0.401,0.401,0.401,0.401,0.401,0.402,0.402,0.402,0.403,0.403,0.403,0.403,0.404,0.404,0.405,0.405,0.405,0.405,0.406,0.406,0.406,0.407,0.407,0.407,0.408,0.408,0.408,0.409,0.409,0.409,0.41,0.41,0.41,0.41,0.41,0.411,0.411,0.411,0.411,0.412,0.412,0.412,0.412,0.413,0.413,0.413,0.413,0.413,0.414,0.414,0.414,0.414,0.414,0.415,0.415,0.415,0.416,0.416,0.416,0.416,0.417,0.417,0.417,0.417,0.417,0.417,0.418,0.417,0.418,0.418,0.418,0.419,0.419,0.419,0.42,0.42,0.421,0.421,0.421,0.421,0.422,0.422,0.422,0.423,0.423,0.423,0.424,0.424,0.424,0.425,0.425,0.425,0.425,0.425,0.426,0.426,0.426,0.426,0.427,0.427,0.427,0.428,0.428,0.428,0.429,0.429,0.43,0.43,0.43,0.431,0.431,0.431,0.431,0.432,0.432,0.432,0.433,0.433,0.433,0.433,0.433,0.434,0.434,0.434,0.434,0.434,0.433,0.431,0.43,0.428,0.426,0.425,0.423,0.421,0.419,0.419,0.417,0.417,0.416,0.415,0.415,0.414,0.413,0.413,0.412,0.412,0.411,0.411,0.41,0.41,0.409,0.409,0.409,0.409,0.408,0.408,0.408,0.408,0.408,0.408,0.408,0.408,0.409,0.409,0.409,0.409,0.409,0.409,0.409,0.409,0.409,0.41,0.41,0.41,0.41,0.411,0.411,0.412,0.412,0.412,0.412,0.413,0.413,0.413,0.414,0.414,0.414,0.414,0.415,0.415,0.415,0.416,0.416,0.416,0.416,0.417,0.417,0.417,0.417,0.418,0.418,0.418,0.419,0.419,0.419,0.419,0.42,0.42,0.421,0.421,0.421,0.421,0.422,0.422,0.422,0.423,0.423,0.423,0.423,0.423,0.423,0.424,0.424,0.424,0.424,0.424,0.425,0.425,0.425,0.425,0.426,0.426,0.426,0.427,0.427,0.428,0.428,0.428,0.428,0.429,0.429,0.43,0.43,0.431,0.431,0.431,0.432,0.432,0.433,0.433,0.433,0.434,0.434,0.434,0.435,0.435,0.435,0.435,0.436,0.436,0.436,0.437,0.437,0.437,0.437,0.438,0.438,0.438,0.438,0.438,0.439,0.439,0.439,0.438,0.438,0.438,0.438,0.437,0.437,0.436,0.435,0.435,0.434,0.434,0.433,0.432,0.431,0.43,0.43,0.429,0.428,0.428,0.427,0.427,0.427,0.426
0,0,0,0,0,0,0,0,0,0,0,0,0,0,0,0,0,0,0,0,0,0,0,0,0,0,0,0,0,0,0,0,0,0,0,0,0,0,0,0,0,0,0,0,0,0,0,0,0,0,0,0,0,0.358,0.358,0.358,0.358,0.358,0.358,0.358,0.358,0.358,0.358,0.358,0.358,0.358,0.358,0.358,0.358,0.359,0.359,0.359,0.359,0.36,0.36,0.36,0.36,0.36,0.36,0.361,0.361,0.361,0.361,0.361,0.362,0.362,0.362,0.362,0.363,0.363,0.363,0.363,0.364,0.364,0.364,0.364,0.365,0.365,0.365,0.365,0.366,0.366,0.366,0.366,0.366,0.367,0.367,0.367,0.367,0.367,0.367,0.367,0.368,0.368,0.368,0.369,0.369,0.369,0.37,0.37,0.371,0.371,0.371,0.371,0.371,0.371,0.371,0.372,0.372,0.372,0.372,0.372,0.372,0.372,0.373,0.373,0.373,0.373,0.374,0.374,0.374,0.374,0.374,0.374,0.375,0.375,0.375,0.376,0.376,0.376,0.377,0.377,0.377,0.377,0.377,0.377,0.378,0.378,0.378,0.378,0.378,0.379,0.379,0.379,0.38,0.38,0.38,0.38,0.38,0.38,0.38,0.381,0.381,0.381,0.381,0.381,0.382,0.382,0.382,0.382,0.383,0.383,0.383,0.384,0.384,0.384,0.384,0.384,0.384,0.385,0.385,0.385,0.385,0.385,0.386,0.386,0.386,0.387,0.387,0.387,0.387,0.388,0.388,0.388,0.388,0.388,0.389,0.389,0.389,0.39,0.39,0.39,0.39,0.391,0.391,0.391,0.391,0.391,0.392,0.392,0.392,0.393,0.393,0.393,0.393,0.394,0.394,0.394,0.394,0.394,0.394,0.395,0.395,0.395,0.395,0.395,0.396,0.396,0.396,0.397,0.397,0.397,0.398,0.398,0.398,0.398,0.398,0.399,0.399,0.399,0.399,0.399,0.399,0.399,0.4,0.4,0.4,0.4,0.401,0.401,0.401,0.401,0.402,0.402,0.402,0.402,0.403,0.403,0.404,0.404,0.404,0.405,0.405,0.405,0.406,0.406,0.406,0.407,0.407,0.407,0.408,0.408,0.408,0.408,0.409,0.409,0.409,0.409,0.41,0.41,0.41,0.41,0.41,0.411,0.411,0.411,0.412,0.412,0.412,0.412,0.413,0.413,0.413,0.413,0.413,0.413,0.413,0.414,0.414,0.414,0.414,0.415,0.415,0.416,0.416,0.416,0.416,0.416,0.417,0.417,0.417,0.417,0.417,0.417,0.417,0.418,0.418,0.418,0.419,0.419,0.419,0.42,0.42,0.421,0.421,0.421,0.422,0.422,0.423,0.423,0.423,0.423,0.424,0.424,0.424,0.424,0.425,0.425,0.425,0.425,0.425,0.426,0.426,0.426,0.426,0.427,0.427,0.428,0.428,0.428,0.429,0.429,0.429,0.43,0.43,0.43,0.431,0.431,0.431,0.431,0.432,0.432,0.432,0.432,0.433,0.433,0.433,0.433,0.433,0.433,0.433,0.433,0.431,0.43,0.428,0,0.425,0.423,0.421,0.419,0.419,0.417,0.417,0.416,0.415,0.414,0.414,0.413,0.413,0.412,0.412,0.411,0.41,0.41,0.409,0.409,0.409,0.408,0.408,0.408,0.408,0.408,0.408,0.408,0.408,0.408,0.408,0.408,0.408,0.408,0.408,0.408,0.408,0.408,0.409,0.409,0.409,0.409,0.409,0.41,0.41,0.41,0.411,0.411,0.412,0.412,0.412,0.412,0.413,0.413,0.413,0.413,0.414,0.414,0.414,0.415,0.415,0.415,0.416,0.416,0.416,0.416,0.417,0.417,0.417,0.417,0.418,0.418,0.418,0.418,0.419,0.419,0.419,0.42,0.42,0.42,0.421,0.421,0.421,0.422,0.422,0.422,0.422,0.422,0.423,0.423,0.423,0.423,0.423,0.424,0.424,0.424,0.424,0.425,0.425,0.425,0.425,0.426,0.426,0.427,0.427,0.427,0.428,0.428,0.428,0.428,0.429,0.429,0.43,0.43,0.431,0.431,0.432,0.432,0.432,0.433,0.433,0.434,0.434,0.434,0.434,0.435,0.435,0.435,0.435,0.436,0.436,0.436,0.436,0.437,0.437,0.437,0.437,0.438,0.438,0.438,0.438,0.438,0.438,0.438,0.438,0.438,0.437,0.437,0.437,0.436,0.436,0.435,0.434,0.434,0.433,0.432,0.431,0.431,0.43,0.43,0.429,0.429,0.428,0.428,0.428
0,0,0,0,0,0,0,0,0,0,0,0,0,0,0,0,0,0,0,0,0,0,0,0,0,0,0,0,0,0,0,0,0,0,0,0,0,0,0,0,0,0,0,0,0,0,0,0,0,0,0,0,0.357,0.357,0.357,0.357,0.357,0.358,0.358,0.358,0.358,0.358,0.358,0.358,0.358,0.358,0.358,0.358,0.358,0.358,0.358,0.359,0.359,0.359,0.359,0.36,0.36,0.36,0.36,0.36,0.36,0.361,0.361,0.361,0.361,0.361,0.362,0.362,0.362,0.362,0.363,0.363,0.363,0.363,0.364,0.364,0.364,0.364,0.364,0.365,0.365,0.365,0.366,0.366,0.366,0.366,0.367,0.367,0.367,0.367,0.367,0.367,0.367,0.367,0.367,0.368,0.368,0.369,0.369,0.369,0.37,0.37,0.371,0.371,0.371,0.371,0.371,0.371,0.371,0.371,0.371,0.372,0.372,0.372,0.372,0.373,0.373,0.373,0.373,0.373,0.374,0.374,0.374,0.374,0.374,0.375,0.375,0.375,0.375,0.376,0.376,0.376,0.376,0.376,0.377,0.377,0.377,0.377,0.377,0.377,0.378,0.378,0.378,0.379,0.379,0.379,0.38,0.38,0.38,0.38,0.38,0.38,0.38,0.38,0.38,0.381,0.381,0.381,0.382,0.382,0.382,0.382,0.383,0.383,0.383,0.383,0.383,0.384,0.384,0.384,0.384,0.384,0.385,0.385,0.385,0.385,0.386,0.386,0.386,0.386,0.387,0.387,0.387,0.387,0.387,0.388,0.388,0.389,0.389,0.389,0.389,0.39,0.39,0.39,0.39,0.391,0.391,0.391,0.391,0.391,0.392,0.392,0.392,0.393,0.393,0.393,0.393,0.393,0.393,0.394,0.394,0.394,0.394,0.395,0.395,0.395,0.395,0.396,0.396,0.396,0.397,0.397,0.397,0.397,0.398,0.398,0.398,0.398,0.398,0.398,0.398,0.398,0.399,0.399,0.399,0.399,0.399,0.4,0.4,0.4,0.4,0.401,0.401,0.401,0.401,0.402,0.402,0.402,0.403,0.403,0.404,0.404,0.404,0.405,0.405,0.406,0.406,0.406,0.407,0.407,0.407,0.408,0.408,0.408,0.408,0.408,0.409,0.409,0.409,0.409,0.41,0.41,0.41,0.41,0.41,0.41,0.411,0.411,0.412,0.412,0.412,0.412,0.412,0.412,0.412,0.412,0.413,0.413,0.413,0.413,0.414,0.414,0.415,0.415,0.415,0.415,0.415,0.416,0.416,0.416,0.417,0.417,0.417,0.417,0.417,0.417,0.417,0.418,0.418,0.419,0.419,0.419,0.42,0.42,0.421,0.421,0.421,0.422,0.422,0.422,0.423,0.423,0.423,0.424,0.424,0.424,0.424,0.424,0.425,0.425,0.425,0.425,0.425,0.426,0.426,0.426,0.427,0.427,0.427,0.428,0.428,0.428,0.429,0.429,0.43,0.43,0.43,0.43,0.431,0.431,0.431,0.431,0.432,0.432,0.432,0.433,0.433,0.433,0.433,0.433,0.433,0.432,0.431,0.43,0.428,0.427,0.425,0.424,0.422,0.42,0.419,0.418,0.417,0.416,0.415,0.414,0.414,0.413,0.413,0.412,0.411,0.41,0.41,0.409,0.409,0.409,0.408,0.408,0.408,0.407,0.407,0.407,0.407,0.407,0.407,0.407,0.407,0.407,0.407,0.408,0.408,0.407,0.407,0.408,0.408,0.408,0.409,0.409,0.409,0.409,0.41,0.41,0.41,0.411,0.411,0.411,0.412,0.412,0.412,0.412,0.413,0.413,0.413,0.413,0.414,0.414,0.414,0.415,0.415,0.415,0.415,0.416,0.416,0.416,0.416,0.417,0.417,0.417,0.417,0.417,0.418,0.418,0.419,0.419,0.419,0.42,0.42,0.42,0.421,0.421,0.421,0.421,0.421,0.422,0.422,0.422,0.423,0.423,0.423,0.423,0.423,0.424,0.424,0.424,0.424,0.425,0.425,0.425,0.426,0.426,0.426,0.427,0.427,0.427,0.428,0.428,0.428,0.429,0.429,0.43,0.43,0.431,0.431,0.431,0.432,0.432,0.433,0.433,0.433,0.434,0.434,0.434,0.434,0.435,0.435,0.435,0.435,0.435,0.436,0.436,0.436,0.436,0.437,0.437,0.437,0.437,0.438,0.438,0.438,0.438,0.438,0.438,0.438,0.437,0.437,0.437,0.436,0.436,0.435,0.434,0.434,0.433,0.433,0.432,0.431,0.431,0.431,0.43,0.43,0.43,0.431
0,0,0,0,0,0,0,0,0,0,0,0,0,0,0,0,0,0,0,0,0,0,0,0,0,0,0,0,0,0,0,0,0,0,0,0,0,0,0,0,0,0,0,0,0,0,0,0,0,0,0,0.356,0.356,0.356,0.356,0.356,0.357,0.357,0.357,0.357,0.357,0.357,0.357,0.357,0.357,0.357,0.358,0.358,0.358,0.358,0.358,0.358,0.358,0.359,0.359,0.359,0.359,0.359,0.359,0.36,0.36,0.36,0.36,0.36,0.361,0.361,0.361,0.361,0.362,0.362,0.362,0.362,0.363,0.363,0.363,0.363,0.364,0.364,0.364,0.364,0.365,0.365,0.365,0.365,0.366,0.366,0.366,0.366,0.366,0.366,0.366,0.367,0.366,0.367,0.367,0.367,0.368,0.368,0.369,0.369,0.369,0.37,0.37,0.37,0.37,0.37,0.37,0.371,0.371,0.371,0.371,0.371,0.371,0.371,0.372,0.372,0.372,0.373,0.373,0.373,0.373,0.373,0.374,0.374,0.374,0.374,0.374,0.374,0.375,0.375,0.375,0.376,0.376,0.376,0.376,0.376,0.376,0.376,0.377,0.377,0.377,0.378,0.378,0.378,0.379,0.379,0.379,0.379,0.379,0.379,0.379,0.379,0.38,0.38,0.38,0.38,0.38,0.381,0.381,0.381,0.382,0.382,0.382,0.382,0.383,0.383,0.383,0.383,0.383,0.383,0.384,0.384,0.384,0.384,0.385,0.385,0.385,0.385,0.386,0.386,0.386,0.386,0.387,0.387,0.387,0.387,0.388,0.388,0.388,0.389,0.389,0.389,0.39,0.39,0.39,0.39,0.391,0.391,0.391,0.391,0.391,0.392,0.392,0.392,0.392,0.392,0.393,0.393,0.393,0.393,0.393,0.394,0.394,0.394,0.394,0.395,0.395,0.395,0.396,0.396,0.396,0.396,0.396,0.397,0.397,0.397,0.397,0.397,0.397,0.397,0.398,0.398,0.398,0.398,0.398,0.399,0.399,0.399,0.399,0.399,0.399,0.4,0.4,0.4,0.401,0.401,0.401,0.402,0.402,0.402,0.403,0.403,0.404,0.404,0.405,0.405,0.406,0.406,0.406,0.407,0.407,0.407,0.407,0.407,0.408,0.408,0.408,0.409,0.409,0.409,0.409,0.409,0.409,0.41,0.41,0.41,0.41,0.41,0.411,0.411,0.411,0.411,0.411,0.411,0.412,0.412,0.412,0.412,0.412,0.413,0.413,0.413,0.414,0.414,0.415,0.415,0.415,0.415,0.416,0.416,0.416,0.416,0.417,0.417,0.417,0.417,0.417,0.417,0.418,0.418,0.418,0.419,0.419,0.42,0.42,0.421,0.421,0.421,0.422,0.422,0.422,0.423,0.423,0.423,0.423,0.423,0.423,0.424,0.424,0.424,0.424,0.425,0.425,0.425,0.425,0.426,0.426,0.426,0.427,0.427,0.428,0.428,0.428,0.428,0.429,0.429,0.429,0.43,0.43,0.43,0.431,0.431,0.431,0.432,0.432,0.432,0.432,0.432,0.432,0.432,0.432,0.432,0.431,0.43,0.429,0.427,0.426,0.424,0.422,0.42,0.419,0.418,0.417,0.415,0.415,0.414,0.413,0.413,0.412,0.412,0.411,0.41,0.41,0.409,0.409,0.408,0.408,0.408,0.407,0.407,0.407,0.407,0.407,0.407,0.407,0.407,0.407,0.407,0.407,0.407,0.407,0.407,0.407,0.407,0.407,0.408,0.408,0.408,0.409,0.409,0.409,0.409,0.41,0.41,0.41,0.41,0.411,0.411,0.411,0.412,0.412,0.412,0.412,0.413,0.413,0.413,0.413,0.414,0.414,0.415,0.415,0.415,0.415,0.416,0.416,0.416,0.416,0.417,0.417,0.417,0.417,0.417,0.418,0.418,0.419,0.419,0.419,0.419,0.42,0.42,0.42,0.421,0.421,0.421,0.421,0.422,0.422,0.422,0.423,0.423,0.423,0.423,0.423,0.424,0.424,0.424,0.425,0.425,0.425,0.425,0.426,0.426,0.426,0.427,0.427,0.428,0.428,0.428,0.428,0.429,0.429,0.43,0.431,0.431,0.431,0.432,0.432,0.432,0.433,0.433,0.433,0.434,0.434,0.434,0.434,0.434,0.435,0.435,0.435,0.435,0.435,0.436,0.436,0.436,0.436,0.437,0.437,0.437,0.437,0.437,0.437,0.438,0.437,0.437,0.437,0.437,0.437,0.436,0.436,0.435,0.435,0.434,0.434,0.433,0.433,0.432,0.432,0.432,0.432,0.432,0.432
0,0,0,0,0,0,0,0,0,0,0,0,0,0,0,0,0,0,0,0,0,0,0,0,0,0,0,0,0,0,0,0,0,0,0,0,0,0,0,0,0,0,0,0,0,0,0,0,0,0,0,0.356,0.356,0.356,0.356,0.356,0.356,0.356,0.357,0.357,0.357,0.357,0.357,0.357,0.357,0.357,0.357,0.357,0.357,0.358,0.358,0.358,0.358,0.358,0.358,0.358,0.358,0.359,0.359,0.359,0.359,0.36,0.36,0.36,0.36,0.361,0.361,0.361,0.361,0.361,0.362,0.362,0.362,0.362,0.363,0.363,0.363,0.363,0.363,0.364,0.364,0.364,0.365,0.365,0.365,0.365,0.366,0.366,0.366,0.366,0.366,0.366,0.366,0.366,0.366,0.367,0.367,0.367,0.368,0.368,0.369,0.369,0.369,0.369,0.369,0.37,0.37,0.37,0.37,0.37,0.371,0.371,0.371,0.371,0.371,0.372,0.372,0.372,0.372,0.373,0.373,0.373,0.373,0.373,0.373,0.374,0.374,0.374,0.374,0.374,0.375,0.375,0.375,0.375,0.376,0.376,0.376,0.376,0.376,0.376,0.377,0.377,0.377,0.378,0.378,0.378,0.378,0.378,0.379,0.379,0.379,0.379,0.379,0.379,0.38,0.38,0.38,0.38,0.38,0.381,0.381,0.381,0.382,0.382,0.382,0.382,0.382,0.382,0.383,0.383,0.383,0.383,0.383,0.384,0.384,0.385,0.385,0.385,0.385,0.385,0.386,0.386,0.386,0.386,0.387,0.387,0.387,0.388,0.388,0.388,0.389,0.389,0.389,0.389,0.39,0.39,0.39,0.39,0.39,0.391,0.391,0.391,0.391,0.391,0.392,0.392,0.392,0.392,0.392,0.393,0.393,0.393,0.393,0.394,0.394,0.394,0.394,0.395,0.395,0.395,0.396,0.396,0.396,0.396,0.397,0.396,0.397,0.396,0.397,0.397,0.397,0.397,0.397,0.397,0.398,0.398,0.398,0.398,0.398,0.399,0.399,0.399,0.399,0.4,0.4,0.4,0.401,0.401,0.401,0.402,0.402,0.403,0.403,0.404,0.404,0.405,0.405,0,0.406,0.406,0.406,0.407,0.407,0.407,0.407,0.407,0.408,0.408,0.408,0.408,0.409,0.409,0.409,0.409,0.409,0.41,0.41,0.41,0.41,0.41,0.41,0.41,0.41,0.411,0.411,0.411,0.412,0.412,0.412,0.412,0.413,0.413,0.413,0.414,0.414,0.414,0.415,0.415,0.415,0.415,0.416,0.416,0.416,0.416,0.416,0.417,0.417,0.417,0.417,0.418,0.418,0.418,0.419,0.419,0.42,0.42,0.421,0.421,0.421,0.421,0.422,0.422,0.422,0.422,0.422,0.423,0.423,0.423,0.423,0.423,0.424,0.424,0.425,0.425,0.425,0.425,0.425,0.426,0.426,0.426,0.427,0.427,0.428,0.428,0.428,0.428,0.428,0.429,0.429,0.43,0.43,0.43,0.431,0.431,0.431,0.431,0.431,0.431,0.431,0.431,0.431,0.431,0.431,0.43,0.429,0.428,0.426,0.424,0.422,0.421,0.419,0.417,0.416,0.415,0.414,0.414,0.413,0.413,0.412,0.412,0.411,0.41,0.41,0.409,0.409,0.408,0.408,0.407,0.407,0.407,0.407,0.407,0.407,0.407,0.407,0.407,0.407,0.407,0.407,0.407,0.407,0.407,0.407,0.407,0.407,0.407,0.407,0.408,0.408,0.408,0.409,0.409,0.409,0.409,0.41,0.41,0.41,0.41,0.41,0.411,0.411,0.411,0.412,0.412,0.412,0.413,0.413,0.413,0.413,0.414,0.414,0.415,0.415,0.415,0.415,0.415,0.415,0.416,0.416,0.416,0.416,0.417,0.417,0.417,0.418,0.418,0.418,0.419,0.419,0.419,0.42,0.42,0.42,0.421,0.421,0.421,0.421,0.422,0.422,0.422,0.422,0.423,0.423,0.423,0.423,0.424,0.424,0.424,0.425,0.425,0.425,0.425,0.426,0.426,0.426,0.427,0.427,0.428,0.428,0.428,0.429,0.429,0.43,0.43,0.431,0.431,0.431,0.432,0.432,0.432,0.433,0.433,0.433,0.433,0.434,0.434,0.434,0.434,0.434,0.434,0.435,0.435,0.435,0.435,0.436,0.436,0.436,0.436,0.437,0.437,0.437,0.437,0.437,0.437,0.437,0.437,0.437,0.437,0.436,0.436,0.435,0.435,0.435,0.434,0.434,0.434,0.434,0.433,0.434,0.434,0.434
0,0,0,0,0,0,0,0,0,0,0,0,0,0,0,0,0,0,0,0,0,0,0,0,0,0,0,0,0,0,0,0,0,0,0,0,0,0,0,0,0,0,0,0,0,0,0,0,0,0,0,0.355,0.355,0.355,0.355,0.355,0.356,0.356,0.356,0.356,0.356,0.356,0.356,0.356,0.357,0.357,0.357,0.357,0.357,0.357,0.357,0.357,0.357,0.358,0.358,0.358,0.358,0.358,0.358,0.359,0.359,0.359,0.36,0.36,0.36,0.36,0.361,0.361,0.361,0.361,0.361,0.361,0.361,0.362,0.362,0.362,0.362,0.363,0.363,0.363,0.364,0.364,0.364,0.364,0.365,0.365,0.365,0.365,0.365,0.365,0.365,0.365,0.365,0.366,0.366,0.366,0.366,0.367,0.367,0.367,0.368,0.368,0.369,0.369,0.369,0.369,0.369,0.369,0.369,0.37,0.37,0.37,0.37,0.371,0.371,0.371,0.372,0.372,0.372,0.372,0.372,0.372,0.373,0.373,0.373,0.373,0.373,0.374,0.374,0.374,0.374,0.374,0.374,0.375,0.375,0.375,0.375,0.375,0.376,0.376,0.376,0.376,0.377,0.377,0.377,0.378,0.378,0.378,0.378,0.378,0.378,0.378,0.378,0.379,0.379,0.379,0.379,0.38,0.38,0.38,0.38,0.381,0.381,0.381,0.382,0.382,0.382,0.382,0.382,0.382,0.382,0.383,0.383,0.383,0.384,0.384,0.384,0.385,0.385,0.385,0.385,0.385,0.386,0.386,0.386,0.386,0.387,0.387,0.387,0.388,0.388,0.388,0.389,0.389,0.389,0.39,0.39,0.39,0.39,0.39,0.39,0.39,0.391,0.391,0.391,0.391,0.391,0.392,0.392,0.392,0.392,0.393,0.393,0.393,0.394,0.394,0.394,0.394,0.395,0.395,0.395,0.395,0.396,0.396,0.396,0.396,0.396,0.396,0.396,0.396,0.397,0.397,0.397,0.397,0.397,0.397,0.398,0.398,0.398,0.398,0.398,0.399,0.399,0.399,0.399,0.399,0.4,0.4,0.401,0.401,0.402,0.402,0.403,0.403,0.404,0.404,0.405,0.405,0.405,0.406,0.406,0.406,0.407,0.407,0.407,0.407,0.407,0.407,0.407,0.408,0.408,0.408,0.408,0.409,0.409,0.409,0.409,0.409,0.409,0.409,0.41,0.41,0.41,0.41,0.41,0.41,0.411,0.411,0.411,0.412,0.412,0.412,0.413,0.413,0.413,0.414,0.414,0.415,0.415,0.415,0.415,0.415,0.416,0.416,0.416,0.416,0.416,0.417,0.417,0.417,0.417,0.418,0.418,0.419,0.419,0.419,0.42,0.421,0.421,0.421,0.421,0.421,0.421,0.421,0.422,0.422,0.422,0.422,0.422,0.423,0.423,0.423,0.424,0.424,0.424,0.425,0.425,0.425,0.425,0.426,0.426,0.426,0.427,0.427,0.427,0.428,0.428,0.428,0.428,0.429,0.429,0.43,0.43,0.43,0.43,0.43,0.431,0.431,0.431,0.431,0.431,0.431,0.43,0.43,0.429,0.428,0.426,0.424,0.422,0.421,0.419,0.418,0.416,0.415,0.415,0.414,0.413,0.413,0.412,0.411,0.41,0.41,0.409,0.409,0.408,0.408,0.407,0.407,0.407,0.407,0.407,0.406,0.406,0.406,0.406,0.406,0.406,0.406,0.406,0.407,0.407,0.407,0.407,0.407,0.407,0.407,0.407,0.407,0.407,0.408,0.408,0.408,0.409,0.409,0.409,0.409,0.409,0.41,0.41,0.41,0.41,0.411,0.411,0.411,0.412,0.412,0.412,0.413,0.413,0.413,0.413,0.414,0.414,0.414,0.415,0.415,0.415,0.415,0.415,0.415,0.416,0.416,0.416,0.417,0.417,0.417,0.418,0.418,0.418,0.419,0.419,0.419,0.42,0.42,0.42,0.421,0.421,0.421,0.421,0.422,0.422,0.422,0.423,0.423,0.423,0.423,0.424,0.424,0.424,0.424,0.425,0.425,0.425,0.425,0.426,0.426,0.426,0.427,0.427,0.428,0.428,0.429,0.429,0.43,0.43,0.431,0.431,0.431,0.431,0.432,0.432,0.432,0.433,0.433,0.433,0.433,0.434,0.434,0.434,0.434,0.434,0.434,0.434,0.435,0.435,0.435,0.436,0.436,0.436,0.436,0.437,0.437,0.437,0.437,0.437,0.437,0.437,0.437,0.437,0.436,0.436,0.436,0.435,0.435,0.435,0.434,0.434,0.434,0.434,0.435,0.435
0,0,0,0,0,0,0,0,0,0,0,0,0,0,0,0,0,0,0,0,0,0,0,0,0,0,0,0,0,0,0,0,0,0,0,0,0,0,0,0,0,0,0,0,0,0,0,0,0,0,0,0.355,0.355,0.355,0.355,0.355,0.355,0.355,0.355,0.355,0.356,0.356,0.356,0.356,0.356,0.356,0.356,0.356,0.356,0.357,0.357,0.357,0.357,0.357,0.358,0.358,0.358,0.358,0.358,0.358,0.359,0.359,0.359,0.359,0.36,0.36,0.36,0.36,0.36,0.361,0.361,0.361,0.361,0.361,0.361,0.362,0.362,0.362,0.362,0.363,0.363,0.363,0.364,0.364,0.364,0.364,0.364,0.364,0.364,0.364,0.365,0.365,0.365,0.365,0.365,0.365,0.366,0.366,0.366,0.367,0.367,0.367,0.368,0.368,0.368,0.368,0.369,0.369,0.369,0.369,0.369,0.369,0.37,0.37,0.37,0.371,0.371,0.371,0.371,0.371,0.372,0.372,0.372,0.372,0.372,0.373,0.373,0.373,0.373,0.373,0.374,0.374,0.374,0.374,0.374,0.374,0.375,0.375,0.375,0.375,0.376,0.376,0.376,0.376,0.377,0.377,0.377,0.377,0.378,0.378,0.378,0.378,0.378,0.378,0.378,0.379,0.379,0.379,0.379,0.38,0.38,0.38,0.381,0.381,0.381,0.381,0.381,0.381,0.382,0.382,0.382,0.382,0.382,0.383,0.383,0.383,0.384,0.384,0.384,0.385,0.385,0.385,0.385,0.385,0.386,0.386,0.386,0.386,0.387,0.387,0.387,0.388,0.388,0.388,0.389,0.389,0.389,0.389,0.389,0.389,0.39,0.39,0.39,0.39,0.39,0.391,0.391,0.391,0.392,0.392,0.392,0.392,0.392,0.393,0.393,0.393,0.394,0.394,0.394,0.394,0.395,0.395,0.395,0.395,0.395,0.396,0.396,0.396,0.396,0.396,0.396,0.396,0.396,0.396,0.397,0.397,0.397,0.397,0.397,0.398,0.398,0.398,0.398,0.399,0.399,0.399,0.399,0.399,0.4,0.401,0.401,0.402,0.402,0.403,0.403,0.404,0.404,0.404,0.405,0.405,0.406,0.406,0.406,0.406,0.406,0.406,0.406,0.407,0.407,0.407,0.407,0.408,0.408,0.408,0.408,0.409,0.409,0.409,0.409,0.409,0.409,0.409,0.409,0.409,0.41,0.41,0.41,0.411,0.411,0.411,0.412,0.412,0.412,0.413,0.413,0.413,0.413,0.414,0.414,0.415,0.415,0.415,0.415,0.415,0.415,0.416,0.416,0.416,0.417,0.417,0.417,0.417,0.418,0.418,0.419,0.419,0.42,0.42,0.42,0.42,0.421,0.421,0.421,0.421,0.421,0.421,0.421,0.421,0.422,0.422,0.423,0.423,0.423,0.423,0.423,0.424,0.424,0.425,0.425,0.425,0.425,0.426,0.426,0.426,0.427,0.427,0.427,0.428,0.428,0.428,0.428,0.429,0.429,0.429,0.429,0.43,0.43,0.43,0.43,0.43,0.43,0.43,0.43,0.429,0.428,0.427,0.425,0.424,0.422,0.42,0.419,0.417,0.416,0.415,0.414,0.413,0.413,0.412,0.412,0.411,0.41,0.41,0.409,0.408,0.408,0.407,0.407,0.407,0.406,0.406,0.406,0.406,0.406,0.406,0.406,0.406,0.406,0.406,0.406,0.406,0.406,0.406,0.406,0.406,0.406,0.407,0.407,0.407,0.407,0.407,0.407,0.408,0.408,0.408,0.408,0.409,0.409,0.409,0.409,0.409,0.41,0.41,0.41,0.41,0.411,0.411,0.412,0.412,0.412,0.413,0.413,0.413,0.414,0.414,0.414,0.414,0.415,0.415,0.415,0.415,0.415,0.415,0.416,0.416,0.416,0.417,0.417,0.417,0.417,0.418,0.418,0.419,0.419,0.419,0.419,0.42,0.42,0.421,0.421,0.421,0.421,0.422,0.422,0.422,0.422,0.423,0.423,0.423,0.423,0.424,0.424,0.424,0.425,0.425,0.425,0.426,0.426,0.426,0.427,0.427,0.428,0.428,0.428,0.429,0.429,0.43,0.43,0.431,0.431,0.431,0.431,0.431,0.432,0.432,0.432,0.433,0.433,0.433,0.433,0.433,0.433,0.434,0.434,0.434,0.434,0.435,0.435,0.435,0.436,0.436,0.436,0.436,0.437,0.437,0.437,0.437,0.437,0.437,0.437,0.437,0.436,0.436,0.436,0.435,0.435,0.435,0.435,0.435,0.435,0.435,0.436
0,0,0,0,0,0,0,0,0,0,0,0,0,0,0,0,0,0,0,0,0,0,0,0,0,0,0,0,0,0,0,0,0,0,0,0,0,0,0,0,0,0,0,0,0,0,0,0,0,0,0,0.354,0.354,0.354,0.354,0.355,0.355,0.354,0.355,0.355,0.355,0.355,0.355,0.355,0.355,0.356,0.355,0.356,0.356,0.356,0.356,0.356,0.357,0.357,0.357,0.357,0.358,0.358,0.358,0.358,0.358,0.359,0.359,0.359,0.359,0.36,0.36,0.36,0.36,0.36,0.36,0.36,0.361,0.361,0.361,0.361,0.362,0.362,0.362,0.362,0.363,0.363,0.363,0.364,0.364,0.364,0.364,0.364,0.364,0.364,0.364,0.364,0.364,0.364,0.364,0.365,0.365,0.365,0.366,0.366,0.367,0.367,0.367,0.367,0.367,0.368,0.368,0.368,0.368,0.369,0.369,0.369,0.369,0.369,0.37,0.37,0.371,0.371,0.371,0.371,0.371,0.371,0.372,0.372,0.372,0.372,0.372,0.373,0.373,0.373,0.373,0.373,0.373,0.374,0.374,0.374,0.374,0.374,0.375,0.375,0.375,0.375,0.376,0.376,0.376,0.376,0.377,0.377,0.377,0.377,0.377,0.377,0.378,0.378,0.378,0.378,0.378,0.379,0.379,0.379,0.379,0.38,0.38,0.38,0.38,0.38,0.381,0.381,0.381,0.381,0.382,0.382,0.382,0.382,0.383,0.383,0.383,0.384,0.384,0.384,0.384,0.384,0.385,0.385,0.385,0.385,0.385,0.386,0.386,0.386,0.387,0.387,0.387,0.388,0.388,0.388,0.388,0.389,0.389,0.389,0.389,0.389,0.389,0.39,0.39,0.39,0.39,0.391,0.391,0.391,0.392,0.392,0.392,0.392,0.393,0.393,0.393,0.393,0.394,0.394,0.394,0.394,0.395,0.395,0.395,0.395,0.395,0.395,0.395,0.395,0.396,0.396,0.396,0.396,0.396,0.396,0.397,0.397,0.397,0.397,0.397,0.398,0.398,0.398,0.398,0.398,0.399,0.399,0.399,0.4,0.4,0.401,0.402,0.402,0.403,0.403,0.404,0.404,0.404,0.405,0.405,0.405,0.406,0.406,0.406,0.406,0.406,0.406,0.406,0.407,0.407,0.407,0.407,0.408,0.407,0.408,0.408,0.408,0.408,0.408,0.409,0.408,0.409,0.409,0.409,0.409,0.41,0.41,0.41,0.41,0.411,0.412,0.412,0.412,0.412,0.413,0.413,0.413,0.414,0.414,0.414,0.415,0.415,0.415,0.415,0.415,0.415,0.416,0.416,0.417,0.417,0.417,0.417,0.418,0.418,0.419,0.419,0.419,0.419,0.419,0.42,0.42,0.42,0.42,0.42,0.421,0.421,0.421,0.421,0.421,0.422,0.422,0.423,0.423,0.423,0.423,0.423,0.424,0.424,0.424,0.425,0.425,0.425,0.425,0.426,0.426,0.426,0.427,0.427,0.428,0.428,0.428,0.428,0.428,0.429,0.429,0.429,0.429,0.429,0.429,0.429,0.429,0.429,0.429,0.428,0.427,0.425,0.424,0.422,0.42,0.419,0.418,0.416,0.415,0.414,0.413,0.413,0.412,0.411,0.411,0.41,0.409,0.409,0.408,0.408,0.407,0.407,0.406,0.406,0.406,0.406,0.406,0.406,0.406,0.405,0.406,0.406,0.406,0.406,0.406,0.406,0.406,0.406,0.406,0.406,0.406,0.406,0.406,0.407,0.407,0.407,0.407,0.408,0.408,0.408,0.408,0.408,0.409,0.409,0.409,0.409,0.409,0.41,0.41,0.41,0.41,0.411,0.411,0.412,0.412,0.412,0.413,0.413,0.413,0.414,0.414,0.414,0.414,0.415,0.415,0.415,0.415,0.415,0.415,0.416,0.416,0.416,0.417,0.417,0.417,0.417,0.418,0.418,0.419,0.419,0.419,0.42,0.42,0.42,0.421,0.421,0.421,0.421,0.422,0.422,0.422,0.423,0.423,0.423,0.423,0.423,0.424,0.424,0.424,0.425,0.425,0.425,0.425,0.426,0.426,0.427,0.427,0.428,0.428,0.428,0.429,0.429,0.43,0.43,0.43,0.431,0.431,0.431,0.431,0.431,0.432,0.432,0.432,0.432,0.433,0.433,0.433,0.433,0.434,0.434,0.434,0.434,0.435,0.435,0.435,0.436,0.436,0.436,0.436,0.437,0.437,0.437,0.437,0.437,0.437,0.436,0.436,0.436,0.436,0.436,0.436,0.436,0.436,0.436,0.436,0.436
0,0,0,0,0,0,0,0,0,0,0,0,0,0,0,0,0,0,0,0,0,0,0,0,0,0,0,0,0,0,0,0,0,0,0,0,0,0,0,0,0,0,0,0,0,0,0,0,0,0,0,0,0,0,0.354,0.354,0.354,0.354,0.354,0.354,0.354,0.354,0.355,0.355,0.355,0.355,0.355,0.355,0.355,0.356,0.356,0.356,0.356,0.356,0.357,0.357,0.357,0.357,0.357,0.358,0.358,0.358,0.358,0.359,0.359,0.359,0.359,0.36,0.36,0.36,0,0.36,0.36,0.36,0.361,0.361,0.361,0.361,0.362,0.362,0.363,0.363,0.363,0.363,0.363,0.363,0.363,0.363,0.363,0.363,0.363,0.364,0.364,0.364,0.364,0.364,0.364,0.365,0.365,0.366,0.366,0.366,0.366,0.367,0.367,0.367,0.367,0.367,0.368,0.368,0.368,0.369,0.369,0.369,0.369,0.369,0.37,0.37,0.37,0.37,0.371,0.371,0.371,0.371,0.371,0.371,0.372,0.372,0.372,0.372,0.372,0.372,0.373,0.373,0.373,0.374,0.374,0.374,0.374,0.374,0.374,0.375,0.375,0.375,0.376,0.376,0.376,0.376,0.377,0.377,0.377,0.377,0.377,0.377,0.378,0.378,0.378,0.378,0.378,0.379,0.379,0.379,0.38,0.38,0.38,0.38,0.38,0.38,0.381,0.381,0.381,0.381,0.382,0.382,0.382,0.383,0.383,0.383,0.383,0.384,0.384,0.384,0.384,0.384,0.385,0.385,0.385,0.385,0.385,0.386,0.386,0.386,0.387,0.387,0.387,0.388,0.388,0.388,0.388,0.388,0.389,0.389,0.389,0.389,0.389,0,0.39,0.39,0.391,0.391,0.391,0.391,0.392,0.392,0.392,0.392,0.393,0.393,0.393,0.393,0.394,0.394,0.394,0.394,0.394,0.395,0.395,0.395,0.395,0.395,0.395,0.395,0.396,0.396,0.396,0.396,0.396,0.396,0.397,0.397,0.397,0.397,0.397,0.398,0.398,0.398,0.398,0.398,0.399,0.399,0.4,0.4,0.401,0.402,0.402,0.403,0.403,0.404,0.404,0.404,0.404,0.405,0.405,0.405,0.405,0.405,0.405,0.405,0.406,0.406,0.406,0.406,0.407,0.407,0.407,0.407,0.407,0.407,0.407,0.407,0.408,0.408,0.408,0.408,0.409,0.409,0.409,0.409,0.41,0.41,0.41,0.411,0.411,0.412,0.412,0.412,0.413,0.413,0.413,0.414,0.414,0.414,0.414,0.414,0.414,0.415,0.415,0.415,0.415,0.416,0.416,0.417,0.417,0.417,0.418,0.418,0.419,0.419,0.419,0.419,0.419,0.419,0.419,0.419,0.419,0.42,0.42,0.42,0.421,0.421,0.421,0.421,0.422,0.422,0.422,0.423,0.423,0.423,0.423,0.423,0.424,0.424,0.425,0.425,0.425,0.425,0.426,0.426,0.427,0.427,0.427,0.428,0.428,0.428,0.428,0.428,0.428,0.428,0.428,0.429,0.429,0.429,0.429,0.428,0.428,0.426,0.425,0.424,0.422,0.42,0.419,0.418,0.416,0.415,0.414,0.413,0.412,0.412,0.411,0.41,0.41,0.409,0.408,0.408,0.407,0.407,0.406,0.406,0.406,0.406,0.405,0.405,0.405,0.405,0.405,0.405,0.405,0.405,0.405,0.405,0.405,0.405,0.405,0.406,0.406,0.406,0.406,0.406,0.406,0.407,0.407,0.407,0.407,0.407,0.407,0.408,0.408,0.408,0.408,0.408,0.409,0.409,0.409,0.409,0.409,0.41,0.41,0.41,0.411,0.411,0.412,0.412,0.413,0.413,0.413,0.413,0.413,0.414,0.414,0.414,0.414,0.415,0.415,0.415,0.415,0.415,0.416,0.416,0.416,0.417,0.417,0.417,0.418,0.418,0.419,0.419,0.419,0.419,0.42,0.42,0.42,0.421,0.421,0.421,0.421,0.422,0.422,0.422,0.423,0.423,0.423,0.423,0.423,0.424,0.424,0.425,0.425,0.425,0.425,0.426,0.426,0.427,0.427,0.427,0.428,0.428,0.428,0.429,0.429,0.429,0.43,0.43,0.43,0.431,0.431,0.431,0.431,0.432,0.432,0.432,0.432,0.433,0.433,0.433,0.433,0.434,0.434,0.434,0.434,0.435,0.435,0.435,0.436,0.436,0.436,0.436,0.437,0.437,0.436,0.436,0.436,0.436,0.436,0.436,0.436,0.436,0.436,0.436,0.436,0.436,0.436
0,0,0,0,0,0,0,0,0,0,0,0,0,0,0,0,0,0,0,0,0,0,0,0,0,0,0,0,0,0,0,0,0,0,0,0,0,0,0,0,0,0,0,0,0,0,0,0,0,0,0,0,0,0,0.353,0.353,0.353,0.353,0.353,0.354,0.354,0.354,0.354,0.354,0.355,0.355,0.355,0.355,0.355,0.355,0.355,0.355,0.356,0.356,0.356,0.356,0.357,0.357,0.357,0.357,0.357,0.358,0.358,0.358,0.358,0.358,0.359,0.359,0.359,0.359,0,0.36,0.36,0.36,0.36,0.36,0.361,0.361,0.361,0.362,0.362,0.362,0.363,0.363,0.363,0.363,0.363,0.363,0.363,0.363,0.363,0.363,0.363,0.363,0.364,0.364,0.364,0.364,0.365,0.365,0.366,0.366,0.366,0.366,0.366,0.367,0.367,0.367,0.367,0.368,0.368,0.368,0.368,0.369,0.369,0.369,0.369,0.369,0.37,0.37,0.37,0.37,0.37,0.371,0.371,0.371,0.371,0.371,0.372,0.372,0.372,0.372,0.372,0.372,0.373,0.373,0.373,0.373,0.374,0.374,0.374,0.374,0.375,0.375,0.375,0.376,0.376,0.376,0.376,0.376,0.377,0.377,0.377,0.377,0.377,0.377,0.377,0.378,0.378,0.378,0.378,0.379,0.379,0.379,0.379,0.38,0.38,0.38,0.38,0.38,0.381,0.381,0.381,0.381,0.382,0.382,0.383,0.383,0.383,0.383,0.383,0.384,0.384,0.384,0.384,0.384,0.385,0.385,0.385,0.385,0.385,0.386,0.386,0.386,0.386,0.387,0.387,0.387,0.388,0.388,0.388,0.388,0.388,0.389,0,0,0,0.39,0.39,0.391,0.391,0.391,0.391,0.392,0.392,0.392,0.392,0.392,0.393,0.393,0.393,0.393,0.394,0.394,0.394,0.394,0.394,0.394,0.395,0.395,0.395,0.395,0.395,0.395,0.395,0.395,0.396,0.396,0.396,0.396,0.397,0.397,0.397,0.397,0.397,0.397,0.398,0.398,0.398,0.398,0.399,0.4,0.4,0.401,0.401,0.402,0.402,0.403,0.403,0.404,0.404,0.404,0.404,0.404,0.404,0.404,0.404,0.405,0.405,0.405,0.405,0.406,0.406,0.406,0.406,0.407,0.407,0.407,0.407,0.407,0.407,0.407,0.407,0.408,0.408,0.408,0.409,0.409,0.409,0.41,0.41,0.41,0.411,0.411,0.412,0.412,0.412,0.412,0.413,0.413,0.413,0.413,0.414,0.414,0.414,0.414,0.415,0.415,0.415,0.415,0.416,0.416,0.417,0.417,0.417,0.417,0.418,0.418,0.418,0.418,0.418,0.418,0.418,0.418,0.419,0.419,0.419,0.419,0.42,0.42,0.421,0.421,0.421,0.421,0.422,0.422,0.422,0.423,0.423,0.423,0.423,0.423,0.424,0.424,0.424,0.425,0.425,0.425,0.426,0.426,0.426,0.427,0.427,0.427,0.427,0.427,0.427,0.428,0.428,0.428,0.428,0.428,0.428,0.428,0.427,0.426,0.425,0.423,0.422,0.42,0.419,0.417,0.416,0.415,0.414,0.413,0.412,0.412,0.411,0.41,0.409,0.409,0.408,0.407,0.407,0.407,0.406,0.406,0.405,0.405,0.405,0.405,0.404,0.405,0.404,0.404,0.404,0.404,0.404,0.404,0.404,0.404,0.405,0.405,0.405,0.405,0.405,0.406,0.406,0.406,0.406,0.406,0.407,0.407,0.407,0.407,0.407,0.407,0.408,0.408,0.408,0.408,0.408,0.409,0.409,0.409,0.409,0.41,0.41,0.411,0.411,0.412,0.412,0.412,0.413,0.413,0.413,0.413,0.414,0.414,0.414,0.414,0.414,0.414,0.415,0.415,0.415,0.415,0.416,0.416,0.416,0.417,0.417,0.417,0.418,0.418,0.418,0.419,0.419,0.419,0.419,0.42,0.42,0.421,0.421,0.421,0.421,0.421,0.422,0.422,0.422,0.422,0.423,0.423,0.423,0.424,0.424,0.424,0.425,0.425,0.425,0.426,0.426,0.426,0.427,0.427,0.428,0.428,0.428,0.428,0.429,0.429,0.429,0.43,0.43,0.43,0.431,0.431,0.431,0.431,0.432,0.432,0.432,0.433,0.433,0.433,0.434,0.434,0.434,0.434,0.434,0.435,0.435,0.435,0.436,0.436,0.436,0.436,0.436,0.436,0.436,0.436,0.436,0.436,0.436,0.436,0.436,0.436,0.436,0.436,0.436
0,0,0,0,0,0,0,0,0,0,0,0,0,0,0,0,0,0,0,0,0,0,0,0,0,0,0,0,0,0,0,0,0,0,0,0,0,0,0,0,0,0,0,0,0,0,0,0,0,0,0,0,0,0,0.353,0.353,0.353,0.353,0.353,0.353,0.353,0.353,0.354,0.354,0.354,0.354,0.354,0.354,0.354,0.355,0.355,0.355,0.355,0.355,0.356,0.356,0.356,0.356,0.357,0.357,0.357,0.357,0.357,0.358,0.358,0.358,0.358,0.358,0.358,0.358,0,0.359,0.359,0.36,0.36,0.36,0.36,0.361,0.361,0.361,0.362,0.362,0.362,0.362,0.363,0.363,0.363,0.363,0.363,0.363,0.363,0.363,0.363,0.363,0.363,0.363,0.364,0.364,0.364,0.365,0.365,0.365,0.366,0.366,0.366,0.366,0.367,0.367,0.367,0.367,0.367,0.367,0.368,0.368,0.368,0.369,0.369,0.369,0.369,0.369,0.37,0.37,0.37,0.37,0.37,0.37,0.371,0.371,0.371,0.371,0.371,0.371,0.371,0.372,0.372,0.372,0.373,0.373,0.373,0.374,0.374,0.374,0.374,0.374,0.375,0.375,0.375,0.376,0.376,0.376,0.376,0.376,0.377,0.377,0.377,0.377,0.377,0.377,0.377,0.378,0.378,0.378,0.379,0.379,0.379,0.379,0.38,0.38,0.38,0.38,0.38,0.38,0.381,0.381,0.381,0.382,0.382,0.382,0.383,0.383,0.383,0.383,0.383,0.384,0.384,0.384,0.384,0.384,0.384,0.385,0.385,0.385,0.385,0.385,0.386,0.386,0.386,0.387,0.387,0.387,0.387,0.388,0.388,0.388,0.389,0.389,0.389,0.39,0.39,0.39,0.39,0.391,0.391,0.391,0.391,0.391,0.392,0.392,0.392,0.392,0.393,0.393,0.393,0.393,0.394,0.394,0.394,0.394,0.394,0.394,0.394,0.394,0.395,0.395,0.395,0.395,0.395,0.396,0.396,0.396,0.396,0.397,0.397,0.397,0.397,0.397,0.397,0.398,0.398,0.398,0.398,0.399,0.4,0.4,0.401,0.401,0.402,0.402,0.403,0.403,0.403,0.403,0.404,0.403,0.404,0.404,0.404,0.404,0.404,0.404,0.405,0.405,0.406,0.406,0.406,0.406,0.406,0.406,0.406,0.406,0.407,0.407,0.407,0.407,0.407,0.408,0.408,0.409,0.409,0.409,0.41,0.41,0.41,0.411,0.411,0.411,0.412,0.412,0.412,0.412,0.413,0.413,0.413,0.413,0.413,0.414,0.414,0.414,0.415,0.415,0.415,0.415,0.416,0.416,0.417,0.417,0.417,0.417,0.417,0.417,0.417,0.417,0.417,0.417,0.418,0.418,0.419,0.419,0.419,0.419,0.42,0.42,0.421,0.421,0.421,0.421,0.422,0.422,0.422,0.422,0.423,0.423,0.423,0.423,0.424,0.424,0.424,0.425,0.425,0.426,0.425,0.426,0.426,0.426,0.427,0.427,0.427,0.427,0.427,0.428,0.428,0.428,0.428,0.428,0.427,0.425,0.424,0.423,0.421,0.42,0.419,0.417,0.416,0.415,0.413,0.413,0.412,0.411,0.41,0.41,0.409,0.408,0.408,0.407,0.407,0.406,0.406,0.405,0.405,0.405,0.404,0.404,0.404,0.404,0.404,0.404,0.404,0.404,0.404,0.404,0.404,0.404,0.404,0.404,0.404,0.404,0.405,0.405,0.405,0.405,0.406,0.406,0.406,0.406,0.406,0.407,0.407,0.407,0.407,0.407,0.407,0.408,0.408,0.408,0.408,0.409,0.409,0.409,0.41,0.41,0.41,0.411,0.411,0.412,0.412,0.412,0.413,0.413,0.413,0.413,0.413,0.414,0.414,0.414,0.414,0.414,0.415,0.415,0.415,0.415,0.416,0.416,0.417,0.417,0.417,0.417,0.418,0.418,0.418,0.419,0.419,0.419,0.42,0.42,0.42,0.42,0.42,0.421,0.421,0.421,0.421,0.422,0.422,0.422,0.423,0.423,0.423,0.423,0.424,0.425,0.425,0.425,0.425,0.426,0.426,0.426,0.427,0.427,0.427,0.428,0.428,0.428,0.428,0.429,0.429,0.43,0.43,0.431,0.431,0.431,0.431,0.432,0.432,0.432,0.432,0.433,0.433,0.433,0.434,0.434,0.434,0.434,0.434,0.435,0.435,0.436,0.436,0.436,0.436,0.436,0.436,0.436,0.436,0.436,0.436,0.436,0.436,0.436,0.436,0.436,0.436
0,0,0,0,0,0,0,0,0,0,0,0,0,0,0,0,0,0,0,0,0,0,0,0,0,0,0,0,0,0,0,0,0,0,0,0,0,0,0,0,0,0,0,0,0,0,0,0,0,0,0,0,0,0,0,0,0,0.352,0.353,0.353,0.353,0.353,0.353,0.353,0.354,0.354,0.354,0.354,0.354,0.354,0.354,0.355,0.355,0.355,0.355,0.355,0.356,0.356,0.356,0.357,0.357,0.357,0.357,0.357,0.357,0.357,0.358,0.358,0.358,0.358,0.358,0.358,0.359,0.359,0.359,0.36,0.36,0.36,0.361,0.361,0.361,0.362,0.362,0.362,0.362,0.362,0.362,0.362,0.362,0.362,0.362,0.362,0.362,0.363,0.363,0.363,0.363,0.364,0.364,0.364,0.364,0.365,0.365,0.366,0.366,0.366,0.366,0.366,0.367,0.367,0.367,0.367,0.367,0.368,0.368,0.368,0.368,0.368,0.369,0.369,0.369,0.369,0.369,0.369,0.37,0.37,0.37,0.37,0.371,0.371,0.371,0.371,0.371,0.371,0.371,0.372,0.372,0.372,0.373,0.373,0.373,0.374,0.374,0.374,0.374,0.375,0.375,0.375,0.376,0.376,0.376,0.376,0.376,0.376,0.377,0.377,0.377,0.377,0.377,0.377,0.378,0.378,0.378,0.378,0.379,0.379,0.379,0.379,0.38,0.38,0.38,0.38,0.38,0.381,0.381,0.381,0.382,0.382,0.382,0.383,0.383,0.383,0.383,0.383,0.383,0.383,0.384,0.384,0.384,0.384,0.384,0.385,0.385,0.385,0.385,0.385,0.386,0.386,0.386,0.387,0.387,0.387,0.387,0.388,0.388,0.389,0.389,0.389,0.39,0.39,0.39,0.39,0.39,0.39,0.391,0.391,0.391,0.391,0.392,0.392,0.392,0.392,0.393,0.393,0.393,0.393,0.393,0.393,0.394,0.394,0.394,0.394,0.394,0.394,0.394,0.394,0.395,0.395,0.395,0.396,0.396,0.396,0.396,0.397,0.397,0.397,0.397,0.397,0.397,0.398,0.398,0.399,0.399,0.4,0.4,0.401,0.401,0.402,0.402,0.402,0.403,0.403,0.403,0.403,0.403,0.403,0.403,0.403,0.403,0.404,0.404,0.404,0.405,0.405,0.405,0.406,0.406,0.406,0.406,0.406,0.406,0.406,0.406,0.407,0.407,0.407,0.408,0.408,0.409,0.409,0.409,0.409,0.41,0.41,0.41,0.411,0.411,0.411,0.412,0.412,0.412,0.412,0.412,0.412,0.413,0.413,0.413,0.413,0.414,0.414,0.415,0.415,0.415,0.415,0.416,0.416,0.416,0.416,0.417,0.417,0.417,0.417,0.417,0.417,0.417,0.417,0.418,0.418,0.418,0.419,0.419,0.42,0.42,0.42,0.42,0.421,0.421,0.421,0.421,0.422,0.422,0.422,0.423,0.423,0.423,0.423,0.424,0.424,0.425,0.425,0.425,0.425,0.425,0.426,0.426,0.426,0.426,0.426,0.426,0.427,0.427,0.427,0.427,0.427,0.426,0.425,0.424,0.423,0.421,0.42,0.418,0.417,0.416,0.415,0.413,0,0.412,0.411,0.41,0.409,0.409,0.408,0.407,0.407,0.406,0.406,0.405,0.405,0.405,0.404,0.404,0.404,0.403,0.403,0.403,0.403,0.403,0.403,0.403,0.403,0.403,0.403,0.403,0.403,0.404,0.404,0.404,0.404,0.404,0.405,0.405,0.405,0.406,0.406,0.406,0.406,0.406,0.406,0.407,0.407,0.407,0.407,0.407,0.408,0.408,0.408,0.409,0.409,0.409,0.409,0.41,0.41,0.411,0.411,0.411,0.412,0.412,0.412,0.412,0.413,0.413,0.413,0.413,0.413,0.413,0.414,0.414,0.415,0.415,0.415,0.415,0.416,0.416,0.416,0.417,0.417,0.417,0.417,0.418,0.418,0.418,0.418,0.419,0.419,0.419,0.42,0.42,0.42,0.42,0.421,0.421,0.421,0.421,0.421,0.422,0.422,0.423,0.423,0.423,0.424,0.424,0.425,0.425,0.425,0.425,0.425,0.426,0.426,0.426,0.427,0.427,0.427,0.428,0.428,0.428,0.429,0.429,0.43,0.43,0.43,0.431,0.431,0.431,0.432,0.432,0.432,0.432,0.433,0.433,0.433,0.434,0.434,0.434,0.434,0.435,0.435,0.435,0.436,0.436,0.436,0.436,0.436,0.436,0.436,0.436,0.436,0.436,0.436,0.436,0.436,0.436
0,0,0,0,0,0,0,0,0,0,0,0,0,0,0,0,0,0,0,0,0,0,0,0,0,0,0,0,0,0,0,0,0,0,0,0,0,0,0,0,0,0,0,0,0,0,0,0,0,0,0,0,0,0,0,0,0,0.352,0.352,0.352,0.352,0.353,0.353,0.353,0.353,0.353,0.353,0.354,0.354,0.354,0.354,0.354,0.354,0.355,0.355,0.355,0.355,0.356,0.356,0.356,0.356,0.356,0.357,0.357,0.357,0.357,0.357,0.357,0.357,0.358,0.358,0.358,0.358,0.359,0.359,0.359,0.36,0.36,0.36,0.361,0.361,0.361,0.361,0.361,0.362,0.362,0.362,0.362,0.362,0.362,0.361,0.362,0.362,0.362,0.363,0.363,0.363,0.363,0.363,0.364,0.364,0.364,0.365,0.365,0.365,0.366,0.366,0.366,0.366,0.367,0.367,0.367,0.367,0.367,0.367,0.367,0.368,0.368,0.368,0.368,0.368,0.369,0.369,0.369,0.369,0.369,0.369,0.37,0.37,0.37,0.37,0.37,0.371,0.371,0.371,0.371,0.371,0.372,0.372,0.373,0.373,0.373,0.373,0.374,0.374,0.374,0.374,0.375,0.375,0.375,0.376,0.376,0.376,0.376,0.376,0.376,0.376,0.376,0.377,0.377,0.377,0.377,0.378,0.378,0.378,0.378,0.379,0.379,0.379,0.38,0.38,0.38,0.38,0.38,0.381,0.381,0.381,0.382,0.382,0.382,0.382,0.382,0.382,0.383,0.383,0.383,0.383,0.383,0.383,0.383,0.384,0.384,0.384,0.384,0.385,0.385,0.385,0.385,0.386,0.386,0.386,0.387,0.387,0.388,0.388,0.388,0.388,0.389,0.389,0.389,0.389,0.39,0.39,0.39,0.39,0.39,0.391,0.391,0.391,0.391,0.392,0.392,0.392,0.392,0.393,0.393,0.393,0.393,0.393,0.393,0.393,0.393,0.394,0.394,0.394,0.394,0.394,0.395,0.395,0.395,0.395,0.396,0.396,0.396,0.397,0.397,0.397,0.397,0.397,0.397,0.398,0.398,0.398,0.399,0.399,0.4,0.4,0.401,0.401,0.402,0.402,0.402,0.402,0.402,0.402,0.403,0.403,0.403,0.403,0.403,0.404,0.404,0.404,0.404,0.404,0.405,0.405,0.405,0.405,0.405,0.406,0.406,0.406,0.406,0.407,0.407,0.407,0.408,0.408,0.408,0.409,0.409,0.409,0.41,0.41,0.41,0.41,0.41,0.411,0.411,0.411,0.411,0.412,0.412,0.412,0.412,0.413,0.413,0.413,0.414,0.414,0.414,0.415,0.415,0.415,0.415,0.415,0.416,0.416,0.416,0.416,0.416,0.416,0.416,0.417,0.417,0.417,0.417,0.418,0.419,0.419,0.419,0.419,0.42,0.42,0.42,0.421,0.421,0.421,0.421,0.421,0.421,0.422,0.422,0.422,0,0.423,0.423,0.424,0.424,0.424,0.425,0.425,0.425,0.425,0.425,0.425,0.425,0.426,0.426,0.426,0.426,0.426,0.426,0.425,0.425,0.423,0.422,0.421,0.419,0.418,0.417,0.415,0.414,0.413,0.412,0.412,0.411,0.41,0.409,0.408,0.408,0.407,0.406,0.406,0.406,0.405,0.404,0.404,0.404,0.403,0.403,0.403,0.403,0.402,0.402,0.402,0.402,0.402,0.402,0.402,0.403,0.403,0.403,0.403,0.403,0.403,0.404,0.404,0.404,0.404,0.405,0.405,0.405,0.406,0.406,0.406,0.406,0.406,0.406,0.406,0.406,0.407,0.407,0.407,0.407,0.408,0.408,0.409,0.409,0.409,0.41,0.41,0.41,0.41,0.411,0.411,0.411,0.412,0.412,0.412,0.412,0.413,0.413,0.413,0.413,0.414,0.414,0.414,0.414,0.415,0.415,0.415,0.416,0.416,0.416,0.416,0.417,0.417,0.417,0.417,0.418,0.418,0.419,0.419,0.419,0.419,0.419,0.419,0.42,0.42,0.42,0.421,0.421,0.421,0.422,0.422,0.422,0.423,0.423,0.423,0.424,0.424,0.424,0.425,0.425,0.425,0.425,0.425,0.426,0.426,0.426,0.427,0.427,0.428,0.428,0.429,0.429,0.429,0.43,0.43,0.431,0.431,0.431,0.431,0.432,0.432,0.432,0.433,0.433,0.433,0.433,0.434,0.434,0.434,0.434,0.435,0.435,0.435,0.435,0.435,0.436,0.436,0.436,0.435,0.435,0.436,0.436,0.436,0.436,0.436
0,0,0,0,0,0,0,0,0,0,0,0,0,0,0,0,0,0,0,0,0,0,0,0,0,0,0,0,0,0,0,0,0,0,0,0,0,0,0,0,0,0,0,0,0,0,0,0,0,0,0,0,0,0,0,0.351,0.351,0.351,0.351,0.352,0.352,0.352,0.352,0.352,0.353,0.353,0.353,0.353,0.353,0.354,0.354,0.354,0.354,0.354,0.355,0.355,0.355,0.355,0.356,0.356,0.356,0.356,0.356,0.356,0.356,0.356,0.356,0.356,0.357,0.357,0.357,0.357,0.358,0.358,0.358,0.359,0.359,0.36,0.36,0.36,0.361,0.361,0.361,0.361,0.361,0.361,0.361,0.361,0.361,0.361,0.361,0.361,0.362,0.362,0.362,0.362,0.363,0.363,0.363,0.363,0.364,0.364,0.364,0.364,0.365,0.365,0.366,0.366,0.366,0.366,0.366,0.367,0.367,0.367,0.367,0.367,0.367,0.367,0.367,0.368,0.368,0.368,0.368,0.368,0.369,0.369,0.369,0.369,0.369,0.369,0.37,0.37,0.37,0.37,0.37,0.371,0.371,0.371,0.372,0.372,0.372,0.372,0.373,0.373,0.373,0.374,0.374,0.374,0.375,0.375,0.375,0.376,0.376,0.376,0.376,0.376,0.376,0.376,0.376,0.376,0.377,0.377,0.377,0.377,0.378,0.378,0.378,0.379,0.379,0.379,0.379,0.38,0.38,0.38,0.38,0.381,0.381,0.381,0.381,0.382,0.382,0.382,0.382,0.382,0.382,0.382,0.383,0.383,0.383,0.383,0.383,0.383,0.383,0.384,0.384,0.384,0.385,0.385,0.385,0.385,0.386,0.386,0.386,0.387,0.387,0.388,0.388,0.388,0.388,0.388,0.389,0.389,0.389,0.389,0.389,0.39,0.39,0.39,0.39,0.391,0.391,0.391,0.392,0.392,0.392,0.392,0.392,0.393,0.393,0.393,0.393,0.393,0.393,0.393,0.393,0.393,0.394,0.394,0.394,0.395,0.395,0.395,0.396,0.396,0.396,0.396,0.397,0.397,0.397,0.397,0.397,0.397,0.398,0.398,0.399,0.399,0.4,0.4,0.401,0.401,0.401,0.401,0.401,0.401,0.402,0.402,0.402,0.402,0.402,0.403,0.403,0.403,0.403,0.404,0.404,0.404,0.405,0.405,0.405,0.405,0.405,0.405,0.405,0.406,0.406,0.406,0.407,0.407,0.407,0.408,0.408,0.409,0.409,0.409,0.409,0.409,0.41,0.41,0.41,0.41,0.41,0.411,0.411,0.411,0.411,0.412,0.412,0.412,0.413,0.413,0.413,0.414,0.414,0.414,0.415,0.415,0.415,0.415,0.415,0.415,0.415,0.415,0.415,0.416,0.416,0.416,0.416,0.417,0.417,0.417,0.418,0.418,0.419,0.419,0.419,0.419,0.42,0.42,0.42,0.421,0.421,0.421,0.421,0.421,0.421,0,0,0.423,0.423,0.423,0.423,0.424,0.424,0.425,0.425,0.425,0.425,0.425,0.425,0.425,0.426,0.426,0.426,0.425,0.425,0.424,0.423,0.422,0.421,0.419,0.418,0.417,0.415,0.414,0.413,0.412,0.411,0.41,0.41,0.409,0.408,0.407,0.407,0.406,0.406,0.405,0.404,0.404,0.404,0.403,0.403,0.402,0.402,0.402,0.402,0.402,0.402,0.402,0.402,0.402,0.402,0.402,0.402,0.402,0.402,0.403,0.403,0.403,0.403,0.404,0.404,0.404,0.404,0.404,0.405,0.405,0.405,0.406,0.406,0.406,0.406,0.406,0.406,0.407,0.407,0.407,0.407,0.407,0.408,0.408,0.408,0.409,0.409,0.409,0.41,0.41,0.41,0.411,0.411,0.411,0.411,0.412,0.412,0.412,0.412,0.412,0.413,0.413,0.413,0.414,0.414,0.414,0.415,0.415,0.415,0.415,0.416,0.416,0.416,0.417,0.417,0.417,0.418,0.418,0.418,0.418,0.419,0.419,0.419,0.419,0.419,0.42,0.42,0.42,0.421,0.421,0.421,0.422,0.422,0.423,0.423,0.423,0.423,0.424,0.424,0.424,0.425,0.425,0.425,0.425,0.425,0.426,0.426,0.427,0.427,0.428,0.428,0.428,0.429,0.429,0.43,0.43,0.43,0.431,0.431,0.431,0.431,0.432,0.432,0.432,0.433,0.433,0.433,0.434,0.434,0.434,0.434,0.435,0.435,0.435,0.435,0.435,0.435,0.435,0.435,0.435,0.435,0.435,0.435,0.435,0.435
0,0,0,0,0,0,0,0,0,0,0,0,0,0,0,0,0,0,0,0,0,0,0,0,0,0,0,0,0,0,0,0,0,0,0,0,0,0,0,0,0,0,0,0,0,0,0,0,0,0,0,0,0,0,0,0.35,0.351,0.351,0.351,0.351,0.351,0.351,0.352,0.352,0.352,0.352,0.352,0.353,0.353,0.353,0.353,0.353,0.354,0.354,0.354,0.354,0.355,0.355,0.355,0.355,0.356,0.356,0.356,0.356,0.356,0.356,0.356,0.356,0.356,0.357,0.357,0.357,0.357,0.358,0.358,0.358,0.359,0.359,0.36,0.36,0.36,0.36,0.36,0.361,0.361,0.361,0.361,0.361,0.361,0.361,0.361,0.361,0.361,0.362,0.362,0.362,0.362,0.362,0.363,0.363,0.363,0.363,0.364,0.364,0.364,0.365,0.365,0.365,0.366,0.366,0.366,0.366,0.366,0.367,0.366,0.366,0.367,0.367,0.367,0.367,0.367,0.368,0.368,0.368,0.368,0.368,0.368,0.369,0.369,0.369,0.369,0.369,0.369,0.37,0.37,0.37,0.37,0.371,0.371,0.371,0.371,0.372,0.372,0.372,0.373,0.373,0.374,0.374,0.374,0.374,0.375,0.375,0.375,0.375,0.376,0.375,0.376,0.376,0.376,0.376,0.376,0.376,0.377,0.377,0.377,0.378,0.378,0.378,0.378,0.379,0.379,0.379,0.38,0.38,0.38,0.38,0.381,0.381,0.381,0.381,0.382,0.382,0.382,0.382,0.382,0.382,0.382,0.382,0.382,0.382,0.382,0.383,0.383,0.383,0.383,0.384,0.384,0.385,0.385,0.385,0.385,0.385,0.386,0.386,0.387,0.387,0.387,0.387,0.388,0.388,0.388,0.388,0.389,0.389,0.389,0.389,0.389,0.39,0.39,0.39,0.39,0.391,0.391,0.391,0.392,0.392,0.392,0.392,0.392,0.392,0.392,0.392,0.392,0.393,0.393,0.393,0.393,0.394,0.394,0.394,0.395,0.395,0.396,0.396,0.396,0.396,0.396,0.396,0.397,0.397,0.397,0.397,0.397,0.398,0.398,0.398,0.399,0.399,0.4,0.4,0.4,0.4,0.4,0.401,0.401,0.401,0.401,0.401,0.402,0.402,0.402,0.403,0.403,0.403,0.403,0.404,0.404,0.404,0.404,0.404,0.404,0.405,0.405,0.405,0.406,0.406,0.406,0.407,0.407,0.407,0.408,0.408,0.408,0.409,0.409,0.409,0.409,0.409,0.409,0.41,0.41,0.41,0.41,0.41,0.41,0.411,0.411,0.412,0.412,0.413,0.413,0.413,0.413,0.414,0.414,0.414,0.414,0.415,0.414,0.415,0.415,0.415,0.415,0.415,0.416,0.416,0.416,0.416,0.417,0.417,0.417,0.417,0.418,0.418,0.419,0.419,0.419,0.419,0.42,0.42,0.42,0.42,0.42,0.421,0.421,0,0,0.422,0.422,0.423,0.423,0.423,0.424,0.424,0.424,0.424,0.425,0.425,0.425,0.425,0.425,0.425,0.425,0.425,0.425,0.424,0.423,0.422,0.421,0.419,0.418,0.416,0.415,0.414,0.413,0.412,0.411,0.41,0.409,0.408,0.408,0.407,0.406,0.406,0.405,0.405,0.404,0.404,0.403,0.403,0.402,0.402,0.402,0.401,0.401,0.401,0.401,0.401,0.401,0.401,0.401,0.402,0.402,0.402,0.402,0.402,0.402,0.403,0.403,0.403,0.403,0.404,0.404,0.404,0.404,0.404,0.405,0.405,0.405,0.405,0.405,0.405,0.406,0.406,0.406,0.406,0.406,0.407,0.407,0.407,0.408,0.408,0.409,0.409,0.409,0.409,0.41,0.41,0.41,0.41,0.41,0.411,0.411,0.411,0.411,0.412,0.412,0.413,0.413,0.413,0.413,0.414,0.414,0.414,0.415,0.415,0.415,0.415,0.416,0.416,0.416,0.417,0.417,0.417,0.417,0.418,0.418,0.418,0.418,0.419,0.419,0.419,0.419,0.42,0.42,0.421,0.421,0.421,0.421,0.422,0.422,0.423,0.423,0.423,0.423,0.424,0.424,0.424,0.424,0.425,0.425,0.425,0.425,0.426,0.426,0.427,0.427,0.428,0.428,0.428,0.429,0.429,0.43,0.43,0.43,0.431,0.431,0.431,0.432,0.432,0.432,0.432,0.433,0.433,0.433,0.434,0.434,0.434,0.434,0.434,0.435,0.435,0.435,0.435,0.435,0.435,0.435,0.435,0.435,0.434,0.434
0,0,0,0,0,0,0,0,0,0,0,0,0,0,0,0,0,0,0,0,0,0,0,0,0,0,0,0,0,0,0,0,0,0,0,0,0,0,0,0,0,0,0,0,0,0,0,0,0,0,0,0,0,0,0,0,0,0.35,0.35,0.351,0.351,0.351,0.351,0.351,0.352,0.352,0.352,0.352,0.352,0.353,0.353,0.353,0.353,0.353,0.354,0.354,0.354,0.355,0.355,0.355,0.355,0.355,0.355,0.355,0.356,0.356,0.356,0.356,0.356,0.356,0.356,0.357,0.357,0.357,0.357,0.358,0.358,0.358,0.359,0.359,0.359,0.36,0.36,0.36,0.36,0.361,0.361,0.361,0.361,0.361,0.361,0.361,0.361,0.361,0.361,0.362,0.362,0.362,0.362,0.363,0.363,0.363,0.363,0.364,0.364,0.364,0.365,0.365,0.365,0.365,0.366,0.366,0.366,0.366,0.366,0.366,0.366,0.366,0.367,0.367,0.367,0.367,0.367,0.368,0.368,0.368,0.368,0.368,0.368,0.368,0.369,0.369,0.369,0.369,0.369,0.37,0.37,0.37,0.37,0.371,0.371,0.371,0.371,0.372,0.372,0.372,0.373,0.373,0.374,0.374,0.374,0.375,0.375,0.375,0.375,0.375,0.375,0.375,0.375,0.375,0.376,0.376,0.376,0.376,0.377,0.377,0.377,0.378,0.378,0.378,0.378,0.379,0.379,0.379,0.38,0.38,0.38,0.38,0.381,0.381,0.381,0.381,0.381,0.381,0.381,0.381,0.381,0.381,0.382,0.382,0.382,0.382,0.382,0.383,0.383,0.383,0.384,0.384,0.384,0.384,0.385,0.385,0.385,0.386,0.386,0.386,0.387,0.387,0.387,0.387,0.388,0.388,0.388,0.388,0.388,0.389,0.389,0.389,0.389,0.39,0.39,0.39,0.39,0.391,0.391,0.391,0.392,0.392,0.392,0.392,0.392,0.392,0.392,0.392,0.392,0.392,0.393,0.393,0.393,0.393,0.394,0.395,0.395,0.395,0.396,0.396,0.396,0.396,0.396,0.396,0.397,0.396,0.397,0.397,0.397,0.398,0.398,0.398,0.399,0.399,0.399,0.4,0.4,0.4,0.4,0.4,0.4,0.401,0.401,0.401,0.402,0.402,0.402,0.403,0.403,0.403,0.403,0.404,0.403,0.404,0.404,0.404,0.404,0.404,0.405,0.405,0.406,0.406,0.406,0.407,0.407,0.408,0.408,0.408,0.408,0.408,0.409,0.409,0.409,0.409,0.409,0.409,0.409,0.41,0.41,0.41,0.411,0.411,0.412,0.412,0.412,0.412,0.413,0.413,0.413,0.413,0.413,0.414,0.414,0.414,0.414,0.414,0.415,0.415,0.415,0.415,0.415,0.415,0.416,0.416,0.417,0.417,0.417,0.418,0.418,0.418,0.419,0.419,0.419,0.419,0.419,0.419,0.42,0.42,0.42,0.42,0.421,0.421,0.422,0.422,0.422,0.423,0.423,0.423,0.424,0.424,0.424,0.424,0.424,0.425,0.425,0.425,0.425,0.425,0.425,0.424,0.423,0.422,0.42,0.419,0.417,0.416,0.415,0.413,0.412,0.411,0.41,0.409,0.409,0.408,0.407,0.407,0.406,0.405,0.405,0.404,0.404,0.403,0.403,0.402,0.402,0.401,0.401,0.401,0.401,0.401,0.401,0.401,0.401,0.401,0.401,0.401,0.401,0.401,0.401,0.401,0.402,0.402,0.402,0.402,0.403,0.403,0.403,0.403,0.403,0.404,0.404,0.404,0.404,0.404,0.404,0.404,0.405,0.405,0.405,0.406,0.406,0.406,0.406,0.407,0.407,0.407,0.408,0.408,0.408,0.409,0.409,0.409,0.409,0.41,0.41,0.41,0.41,0.41,0.411,0.411,0.412,0.412,0.412,0.412,0.413,0.413,0.413,0.414,0.414,0.414,0.415,0.415,0.415,0.415,0.416,0.416,0.416,0.417,0.417,0.417,0.417,0.417,0.418,0.418,0.418,0.418,0.419,0.419,0.419,0.42,0.42,0.421,0.421,0.421,0.422,0.422,0.422,0.423,0.423,0.423,0.423,0.424,0.424,0.424,0.424,0.425,0.425,0.425,0.425,0.426,0.426,0.427,0.428,0.428,0.428,0.429,0.429,0.429,0.43,0.43,0.43,0.431,0.431,0.431,0.431,0.432,0.432,0.432,0.433,0.433,0.433,0.434,0.434,0.434,0.434,0.434,0.434,0.434,0.434,0.434,0.434,0.434,0.434,0.434,0.434
0,0,0,0,0,0,0,0,0,0,0,0,0,0,0,0,0,0,0,0,0,0,0,0,0,0,0,0,0,0,0,0,0,0,0,0,0,0,0,0,0,0,0,0,0,0,0,0,0,0,0,0,0,0,0,0,0.35,0.35,0.35,0.35,0.35,0.35,0.351,0.351,0.351,0.352,0.352,0.352,0.352,0.352,0.352,0.352,0.353,0.353,0.353,0.353,0.354,0.354,0.354,0.354,0.355,0.355,0.355,0.355,0.355,0.355,0.355,0.355,0.356,0.356,0.356,0.356,0.356,0.357,0.357,0.357,0.357,0.358,0.358,0.358,0.359,0.359,0.359,0.36,0.36,0.36,0.36,0.36,0.36,0.36,0.36,0.361,0.361,0.361,0.361,0.361,0.361,0.362,0.362,0.362,0.362,0.363,0.363,0.363,0.363,0.364,0.364,0.364,0.365,0.365,0.365,0.365,0.366,0.366,0.366,0.366,0.366,0.366,0.366,0.366,0.367,0.367,0.367,0.367,0.367,0.367,0.368,0.368,0.368,0.368,0.368,0.368,0.368,0.369,0.369,0.369,0.369,0.369,0.37,0.37,0.37,0.371,0.371,0.371,0.371,0.372,0.372,0.373,0.373,0.374,0.374,0.374,0.374,0.374,0.374,0.374,0.374,0.375,0.375,0.375,0.375,0.376,0.376,0.376,0.376,0.377,0.377,0.377,0.377,0.378,0.378,0.378,0.378,0.379,0.379,0.379,0.38,0.38,0.38,0.38,0.38,0.381,0.381,0.381,0.381,0.381,0.381,0.381,0.381,0.381,0.381,0.382,0.382,0.382,0.382,0.383,0.383,0.383,0.383,0.384,0.384,0.384,0.385,0.385,0.385,0.386,0.386,0.386,0.387,0.387,0.387,0.387,0.387,0.388,0.388,0.388,0.388,0.388,0.389,0.389,0.389,0.39,0.39,0.39,0.39,0.391,0.391,0.391,0.391,0.391,0.391,0.391,0.391,0.391,0.392,0.392,0.392,0.392,0.393,0.393,0.394,0.394,0.395,0.395,0.395,0.396,0.396,0.396,0.396,0.396,0.396,0.396,0.396,0.396,0.397,0,0,0.398,0.398,0.399,0.399,0.399,0.399,0.399,0.4,0.4,0.4,0.4,0.4,0.401,0.401,0.401,0.402,0.402,0.402,0.402,0.403,0.403,0.403,0.403,0.403,0.403,0.404,0.404,0.404,0.405,0.405,0.406,0.406,0.406,0.407,0.407,0.407,0.407,0.407,0.408,0.408,0.408,0.408,0.408,0.409,0.409,0.409,0.409,0.409,0.41,0.41,0.41,0.411,0.411,0.411,0.412,0.412,0.412,0.412,0.413,0.413,0.413,0.413,0.413,0.414,0.414,0.414,0.414,0.415,0.415,0.415,0.415,0.415,0.415,0.416,0.416,0.417,0.417,0.417,0.417,0.418,0.418,0.418,0.419,0.419,0.419,0.419,0.419,0.419,0.42,0.42,0.421,0.421,0.421,0.422,0.422,0.423,0.423,0.423,0.423,0.424,0.424,0.424,0.424,0.425,0.425,0.424,0.425,0.424,0.424,0.423,0.422,0.421,0.419,0.417,0.416,0.414,0.413,0.412,0.411,0.41,0.409,0.408,0.407,0.407,0.406,0.406,0.405,0.404,0.404,0.403,0.403,0.402,0.402,0.401,0.401,0.401,0.4,0.4,0.4,0.4,0.4,0.4,0.4,0.4,0.4,0.401,0.401,0.401,0.401,0.401,0.401,0.402,0.402,0.402,0.402,0.402,0.403,0.403,0.403,0.403,0.403,0.403,0.403,0.404,0.404,0.404,0.404,0.405,0.405,0.405,0.406,0.406,0.406,0.406,0.407,0.407,0.407,0.407,0.408,0.408,0.408,0.409,0.409,0.409,0.409,0.409,0.41,0.41,0.41,0.411,0.411,0.411,0.412,0.412,0.412,0.413,0.413,0.413,0.414,0.414,0.414,0.415,0.415,0.415,0.415,0.416,0.416,0.416,0.416,0.417,0.417,0.417,0.417,0.417,0.418,0.418,0.418,0.419,0.419,0.42,0.42,0.42,0.421,0.421,0.421,0.422,0.422,0.422,0.423,0.423,0.423,0.423,0.423,0.424,0.424,0.424,0.425,0.425,0.425,0.426,0.426,0.427,0.427,0.428,0.428,0.428,0.429,0.429,0.429,0.429,0.43,0.43,0.431,0.431,0.431,0.431,0.432,0.432,0.432,0.433,0.433,0.433,0.434,0.434,0.434,0.434,0.434,0.434,0.434,0.434,0.434,0.434,0.434,0.434
0,0,0,0,0,0,0,0,0,0,0,0,0,0,0,0,0,0,0,0,0,0,0,0,0,0,0,0,0,0,0,0,0,0,0,0,0,0,0,0,0,0,0,0,0,0,0,0,0,0,0,0,0,0,0,0,0.349,0.349,0.35,0.35,0.35,0.35,0.35,0.351,0.351,0.351,0.351,0.351,0.352,0.352,0.352,0.352,0.352,0.352,0.353,0.353,0.353,0.354,0.354,0.354,0.354,0.354,0.355,0.355,0.355,0.355,0.355,0.355,0.355,0.355,0.356,0.356,0.356,0.356,0.356,0.356,0.357,0.357,0.358,0.358,0.358,0.359,0.359,0.359,0.36,0.36,0.36,0.36,0.36,0.36,0.36,0.36,0.36,0.361,0.361,0.361,0.361,0.361,0.361,0.362,0.362,0.362,0.362,0.363,0.363,0.363,0.363,0.364,0.364,0.364,0.364,0.365,0.365,0.365,0.365,0.365,0.365,0.366,0.366,0.366,0.366,0.366,0.366,0.367,0.367,0.367,0.367,0.367,0.367,0.367,0.367,0.368,0.368,0.368,0.368,0.368,0.369,0.369,0.369,0.369,0.369,0.37,0.37,0.371,0.371,0.371,0.372,0.372,0.373,0.373,0.374,0.374,0.374,0.374,0.374,0.374,0.374,0.374,0.374,0.374,0.375,0.375,0.376,0.376,0.376,0.376,0.376,0.377,0.377,0.377,0.377,0.377,0.378,0.378,0.378,0.379,0.379,0.379,0.38,0.38,0.38,0.38,0.38,0.38,0.38,0.38,0.38,0.381,0.381,0.381,0.381,0.381,0.381,0.382,0.382,0.382,0.383,0.383,0.383,0.383,0.383,0.384,0.384,0.385,0.385,0.385,0.385,0.386,0.386,0.386,0.386,0.386,0.387,0.387,0.387,0.387,0.388,0.388,0.388,0.388,0.389,0.389,0.389,0.39,0.39,0.391,0.391,0.391,0.391,0.391,0.391,0.391,0.391,0.391,0.391,0.391,0.392,0.392,0.392,0.393,0.393,0.394,0.394,0.395,0.395,0.395,0.395,0.395,0.396,0.396,0.396,0.396,0.396,0.396,0.396,0,0,0.397,0.398,0.398,0.398,0.398,0.399,0.399,0.399,0.399,0.399,0.4,0.4,0.4,0.401,0.401,0.401,0.401,0.402,0.402,0.402,0.402,0.402,0.402,0.403,0.403,0.403,0.403,0.404,0.404,0.405,0.405,0.405,0.406,0.406,0.407,0.407,0.407,0.407,0.407,0.407,0.407,0.407,0.408,0.408,0.408,0.408,0.409,0.409,0.409,0.409,0.41,0.41,0.41,0.411,0.411,0.411,0.411,0.412,0.412,0.412,0.412,0.412,0.413,0.413,0.413,0.413,0.414,0.414,0.414,0.414,0.415,0.415,0.415,0.415,0.415,0.416,0.416,0.416,0.417,0.417,0.417,0.418,0.418,0.418,0.418,0.418,0.419,0.419,0.419,0.42,0.42,0.42,0.421,0.421,0.422,0.422,0.423,0.423,0.423,0.423,0.423,0.423,0.424,0.424,0.424,0.424,0.424,0.424,0.424,0.423,0.422,0.421,0.419,0.417,0.416,0.414,0.413,0.412,0.41,0.409,0.409,0.408,0.407,0.406,0.406,0.405,0.404,0.404,0.403,0.403,0.402,0.402,0.401,0.401,0.401,0.4,0.4,0.399,0.399,0.399,0.399,0.399,0.4,0.4,0.4,0.4,0.4,0.4,0.4,0.4,0.401,0.401,0.401,0.401,0.402,0.402,0.402,0.402,0.402,0.402,0.403,0.403,0.403,0.403,0.403,0.403,0.404,0.404,0.404,0.404,0.405,0.405,0.406,0.406,0.406,0.406,0.407,0.407,0.407,0.407,0.408,0.408,0.408,0.408,0.408,0.409,0.409,0.409,0.41,0.41,0.41,0.411,0.411,0.411,0.412,0.412,0.412,0.413,0.413,0.413,0.413,0.414,0.414,0.414,0.415,0.415,0.415,0.415,0.415,0.416,0.416,0.416,0.417,0.417,0.417,0.417,0.418,0.418,0.419,0.419,0.419,0.42,0.42,0.421,0.421,0.421,0.421,0.422,0.422,0.422,0.423,0.423,0.423,0.423,0.424,0.424,0.424,0.425,0.425,0.425,0.426,0.426,0.427,0.427,0.427,0.428,0.428,0.428,0.428,0.429,0.429,0.43,0.43,0.43,0.431,0.431,0.431,0.431,0.432,0.432,0.433,0.433,0.433,0.433,0.433,0.433,0.433,0.433,0.433,0.433,0.433,0.433,0.433,0.433
0,0,0,0,0,0,0,0,0,0,0,0,0,0,0,0,0,0,0,0,0,0,0,0,0,0,0,0,0,0,0,0,0,0,0,0,0,0,0,0,0,0,0,0,0,0,0,0,0,0,0,0,0,0,0,0,0.349,0.349,0.349,0.349,0.349,0.35,0.35,0.35,0.35,0.351,0.351,0.351,0.351,0.351,0.351,0.352,0.352,0.352,0.352,0.353,0.353,0.353,0.354,0.354,0.354,0.354,0.354,0.355,0.355,0.355,0.355,0.355,0.355,0.355,0.355,0.355,0.355,0.355,0.356,0.356,0.356,0.357,0.357,0.357,0.358,0.358,0.358,0.358,0.359,0.359,0.359,0.36,0.36,0.36,0.36,0.36,0.36,0.36,0.361,0.361,0.361,0.361,0.361,0.361,0.362,0.362,0.362,0.362,0.363,0.363,0.363,0.363,0.363,0.364,0.364,0.364,0.364,0.364,0.364,0.365,0.365,0.365,0.365,0.365,0.366,0.366,0.366,0.366,0.366,0.366,0.367,0.367,0.367,0.367,0.367,0.367,0.367,0.367,0.368,0.368,0.368,0.368,0.368,0.369,0.369,0.369,0.369,0.37,0.37,0.371,0.371,0.372,0.372,0.373,0.373,0.373,0.373,0.373,0.373,0.374,0.374,0.374,0.374,0.374,0.374,0.375,0.375,0.375,0.376,0.376,0.376,0.376,0.376,0.377,0.377,0.377,0.377,0.377,0.378,0.378,0.378,0.379,0.379,0.38,0.379,0.38,0.38,0.38,0.38,0.38,0.38,0.38,0.38,0.38,0.381,0.381,0.381,0.381,0.381,0.382,0.382,0.382,0.382,0.383,0.383,0.383,0.383,0.384,0.384,0.385,0.385,0.385,0.385,0.385,0.386,0.386,0.386,0.386,0.386,0.387,0.387,0.387,0.388,0.388,0.388,0.388,0.389,0.389,0.39,0.39,0.39,0.39,0.39,0.391,0.391,0.391,0.391,0.391,0.391,0.391,0.391,0.392,0.392,0.392,0.393,0.393,0.394,0.394,0.394,0.395,0.395,0.395,0.395,0.395,0.395,0.395,0.395,0.395,0.396,0.396,0.396,0.397,0.397,0.397,0.398,0.398,0.398,0.398,0.399,0.399,0.399,0.399,0.4,0.4,0.4,0.401,0.401,0.401,0.401,0.401,0.401,0.402,0.402,0.402,0.402,0.402,0.403,0.403,0.403,0.404,0.404,0.404,0.405,0.405,0.406,0.406,0.406,0.406,0.406,0.407,0.406,0.407,0.407,0.407,0.407,0.407,0.408,0.408,0.408,0.409,0.409,0.409,0.409,0.41,0.41,0.41,0.41,0.41,0.411,0.411,0.411,0.412,0.412,0.412,0.412,0.413,0.413,0.413,0.414,0.414,0.414,0.414,0.414,0.414,0.415,0.415,0.415,0.415,0.416,0.416,0.417,0.417,0.417,0.417,0.418,0.418,0.418,0.418,0.418,0.419,0.419,0.419,0.42,0.42,0.421,0.421,0.422,0.422,0.422,0.422,0.423,0.423,0.423,0.423,0.423,0.424,0.424,0.424,0.424,0.423,0.423,0.422,0.421,0.419,0.417,0.416,0.414,0.413,0.411,0.41,0.409,0.408,0.407,0.407,0.406,0.405,0.405,0.404,0.404,0.403,0.403,0.402,0.402,0.401,0.401,0.4,0.4,0.399,0.399,0.399,0.399,0.399,0.399,0.399,0.399,0.399,0.399,0.399,0.399,0.4,0.4,0.4,0.4,0.4,0.401,0.401,0.401,0.401,0.401,0.402,0.402,0.402,0.402,0.402,0.402,0.402,0.403,0.403,0.403,0.403,0.404,0.404,0.404,0.405,0.405,0.406,0.406,0.406,0.406,0.407,0.407,0.407,0.407,0.407,0.407,0.408,0.408,0.408,0.409,0.409,0.409,0.41,0.41,0.41,0.411,0.411,0.411,0.412,0.412,0.412,0.413,0.413,0.413,0.413,0.414,0.414,0.414,0.415,0.415,0.415,0.415,0.415,0.415,0.416,0.416,0.416,0.417,0.417,0.417,0.418,0.418,0.419,0.419,0.42,0.42,0.42,0.421,0.421,0.421,0.421,0.422,0.422,0.422,0.423,0.423,0.423,0.423,0.424,0.424,0.425,0.425,0.425,0.426,0.426,0.426,0.427,0.427,0.427,0.428,0.428,0.428,0.428,0.429,0.429,0.429,0.43,0.43,0.43,0.431,0.431,0.431,0.432,0.432,0.432,0.432,0.432,0.433,0.433,0.433,0.433,0.433,0.433,0.433,0.433,0.433
0,0,0,0,0,0,0,0,0,0,0,0,0,0,0,0,0,0,0,0,0,0,0,0,0,0,0,0,0,0,0,0,0,0,0,0,0,0,0,0,0,0,0,0,0,0,0,0,0,0,0,0,0,0,0,0,0.349,0.348,0.349,0.349,0.349,0.349,0.349,0.35,0.35,0.35,0.35,0.351,0.351,0.351,0.351,0.351,0.352,0.352,0.352,0.352,0.353,0.353,0.353,0.353,0.354,0.354,0.354,0.354,0.354,0.354,0.354,0.354,0.355,0.355,0.355,0.355,0.355,0.355,0.355,0.355,0.356,0.356,0.356,0.357,0.357,0.357,0.358,0.358,0.358,0.358,0.359,0.359,0.359,0.359,0.359,0.36,0.36,0.36,0.36,0.36,0.36,0.36,0.361,0.361,0.361,0.361,0.362,0.362,0.362,0.362,0.362,0.363,0.363,0.363,0.363,0.364,0.364,0.364,0.364,0.364,0.364,0.365,0.365,0.365,0.365,0.365,0.366,0.366,0.366,0.366,0.366,0.366,0.366,0.366,0.366,0.367,0.367,0.367,0.367,0.367,0.367,0.367,0.368,0.368,0.368,0.369,0.369,0.369,0.37,0.37,0.371,0.371,0.372,0.372,0.372,0.373,0.373,0.373,0.373,0.373,0.373,0.373,0.373,0.374,0.374,0.374,0.374,0.375,0.375,0.375,0.376,0.376,0.376,0.376,0.376,0.377,0.377,0.377,0.377,0.378,0.378,0.378,0.379,0.379,0.379,0.379,0.379,0.379,0.379,0.38,0.38,0.38,0.38,0.38,0.38,0.38,0.38,0.381,0.381,0.381,0.382,0.382,0.382,0.382,0.382,0.383,0.383,0.383,0.384,0.384,0.384,0.384,0.385,0.385,0.385,0.385,0.385,0.386,0.386,0.386,0.386,0.387,0.387,0.387,0.387,0.388,0.388,0.388,0.389,0.389,0.389,0.39,0.39,0.39,0.39,0.39,0.39,0.39,0.39,0.391,0.391,0.391,0.391,0.392,0.392,0.392,0.393,0.393,0.393,0.394,0.394,0.394,0.394,0.394,0.395,0.395,0.395,0.395,0.395,0.395,0.396,0.396,0.397,0.397,0.397,0.397,0.398,0.398,0.398,0.398,0.399,0.399,0.399,0.399,0.4,0.4,0.4,0.4,0.4,0.401,0.401,0.401,0.401,0.401,0.402,0.402,0.402,0.403,0.403,0.403,0.403,0.404,0.404,0.404,0.405,0.405,0.406,0.405,0.406,0.406,0.406,0.406,0.406,0.406,0.407,0.407,0.407,0.407,0.408,0.408,0.408,0.409,0.409,0.409,0.409,0.409,0.409,0.41,0.41,0.41,0.41,0.411,0.411,0.412,0.412,0.412,0.412,0.413,0.413,0.413,0.413,0.413,0.413,0.414,0.414,0.414,0.415,0.415,0.415,0.415,0.416,0.416,0.417,0.417,0.417,0.417,0.417,0.417,0.418,0.418,0.419,0.419,0.419,0.42,0.42,0.421,0.421,0.421,0.422,0.422,0.422,0.422,0.422,0.423,0.423,0.423,0.423,0.423,0.423,0.423,0.423,0.422,0.421,0.419,0.417,0.416,0.414,0.412,0.411,0.409,0.408,0.407,0.407,0.406,0.406,0.405,0.404,0.404,0.403,0.403,0.402,0.402,0.401,0.401,0.4,0.399,0.399,0.399,0.399,0.399,0.399,0.399,0.399,0.399,0.399,0.399,0.399,0.399,0.399,0.399,0.399,0.399,0.399,0.4,0.4,0.4,0.401,0.401,0.401,0.401,0.401,0.401,0.401,0.402,0.402,0.402,0.402,0.402,0.403,0.403,0.403,0.404,0.404,0.404,0.404,0.405,0.405,0.406,0.406,0.406,0.406,0.406,0.407,0.407,0.407,0.407,0.407,0.408,0.408,0.408,0.409,0.409,0.409,0.41,0.41,0.41,0.41,0.411,0.411,0.412,0.412,0.412,0.413,0.413,0.413,0.413,0.414,0.414,0.414,0.414,0.415,0.415,0.415,0.415,0.416,0.416,0.416,0.417,0.417,0.417,0.418,0.418,0.419,0.419,0.419,0.419,0.42,0.42,0.421,0.421,0.421,0.421,0.422,0.422,0.422,0.423,0.423,0.423,0.424,0.424,0.424,0.425,0.425,0.425,0.426,0.426,0.426,0.426,0.427,0.427,0.427,0.428,0.428,0.428,0.428,0.429,0.429,0.429,0.43,0.43,0.431,0.431,0.431,0.431,0.431,0.432,0.432,0.432,0.432,0.432,0.432,0.432,0.432,0.432,0.432
0,0,0,0,0,0,0,0,0,0,0,0,0,0,0,0,0,0,0,0,0,0,0,0,0,0,0,0,0,0,0,0,0,0,0,0,0,0,0,0,0,0,0,0,0,0,0,0,0,0,0,0,0,0,0,0,0.348,0.348,0.348,0.348,0.349,0.349,0.349,0.349,0.349,0.35,0.35,0.35,0.35,0.35,0.351,0.351,0.351,0.352,0.352,0.352,0.352,0.352,0.353,0.353,0.353,0.353,0.354,0.354,0.354,0.354,0.354,0.354,0.354,0.354,0.355,0.355,0.355,0.355,0.355,0.355,0.355,0.356,0.356,0.356,0.357,0.357,0.357,0.357,0.358,0.358,0.358,0.358,0.358,0.358,0.359,0.359,0.359,0.359,0.359,0.359,0,0.36,0.36,0.361,0.361,0.361,0.361,0.361,0.361,0.362,0.362,0.362,0.362,0.363,0.363,0.363,0.363,0.363,0.364,0.364,0.364,0.364,0.364,0.364,0.365,0.365,0.365,0.365,0.365,0,0.366,0.366,0.366,0.366,0.366,0.366,0.366,0.366,0.367,0.367,0.367,0.367,0.367,0.367,0.367,0.368,0.368,0.369,0.369,0.37,0.37,0.371,0.371,0.372,0.372,0.372,0.372,0.372,0.372,0.372,0.373,0.373,0.373,0.373,0.373,0.374,0.374,0.374,0.375,0.375,0.375,0.375,0.376,0.376,0.376,0.376,0.376,0.377,0.377,0.377,0.377,0.377,0.378,0.378,0.378,0.378,0.379,0.379,0.379,0.379,0.379,0.379,0.379,0.379,0.38,0.38,0.38,0.38,0.381,0.381,0.381,0.381,0.382,0.382,0.382,0.382,0.382,0.383,0.383,0.383,0.383,0.384,0.384,0.384,0.384,0.385,0.385,0.385,0.385,0.385,0.386,0.386,0.386,0.387,0.387,0.387,0.388,0.388,0.388,0.388,0.389,0,0,0.389,0.39,0.39,0.39,0.39,0.39,0.39,0.391,0.391,0.391,0.391,0.392,0.392,0.392,0.393,0.393,0.393,0.393,0.393,0.394,0.394,0.394,0.394,0.394,0.394,0.395,0.395,0.396,0.396,0.396,0.397,0.397,0.397,0.397,0.397,0.398,0.398,0.398,0.399,0.399,0.399,0.399,0.399,0.399,0.4,0.4,0.4,0.4,0.4,0.401,0.401,0.401,0.401,0.402,0.402,0.402,0.403,0.403,0.403,0.404,0.404,0.404,0.404,0.405,0.405,0.405,0.405,0.405,0.406,0.406,0.406,0.406,0.407,0.407,0.407,0.407,0.407,0.408,0.408,0.408,0.408,0.408,0.409,0.409,0.409,0.409,0.41,0.41,0.41,0.41,0.411,0.411,0.411,0.412,0.412,0.412,0.412,0.413,0.413,0.413,0.413,0.413,0.413,0.414,0.414,0.414,0.415,0.415,0.415,0.416,0.416,0.417,0.417,0.417,0.417,0.417,0.418,0.418,0.419,0.419,0.419,0.419,0.42,0.42,0.421,0.421,0.421,0.421,0.421,0.421,0.422,0.422,0.423,0.423,0.423,0.423,0.423,0.423,0.422,0.421,0.419,0.417,0.416,0.414,0.412,0.41,0.409,0.408,0.407,0.406,0.406,0.405,0.404,0.404,0.403,0.403,0.402,0.402,0.401,0.401,0.4,0.4,0.399,0.399,0.398,0.398,0.398,0.398,0.398,0.398,0.398,0.398,0.398,0.398,0.398,0.399,0.398,0.399,0.399,0.399,0.399,0.399,0.399,0.4,0.4,0.4,0.4,0.4,0.4,0.401,0.401,0.401,0.401,0.401,0.402,0.402,0.402,0.403,0.403,0.403,0.403,0.404,0.404,0.404,0.405,0.405,0.406,0.406,0.406,0.406,0.406,0.406,0.406,0.407,0.407,0.407,0.407,0.408,0.408,0.409,0.409,0.409,0.409,0.41,0.41,0.41,0.411,0.411,0.412,0.412,0.412,0.413,0.413,0.413,0.413,0.414,0.414,0.414,0.414,0.415,0.415,0.415,0.415,0.416,0.416,0.416,0.417,0.417,0.417,0.418,0.418,0.419,0.419,0.419,0.419,0.42,0.42,0.42,0.421,0.421,0.421,0.422,0.422,0.423,0.423,0.423,0.424,0.424,0.424,0.425,0.425,0.425,0.425,0.425,0.426,0.426,0.426,0.426,0.427,0.427,0.427,0.428,0.428,0.428,0.428,0.429,0.429,0.43,0.43,0.43,0.431,0.431,0.431,0.431,0.431,0.431,0.432,0.432,0.432,0.432,0.432,0.432
0,0,0,0,0,0,0,0,0,0,0,0,0,0,0,0,0,0,0,0,0,0,0,0,0,0,0,0,0,0,0,0,0,0,0,0,0,0,0,0,0,0,0,0,0,0,0,0,0,0,0,0,0,0,0,0.348,0.348,0.348,0.348,0.348,0.348,0.348,0.349,0.349,0.349,0.349,0.349,0.35,0.35,0.35,0.35,0.35,0.351,0.351,0.351,0.351,0.352,0.352,0.352,0.353,0.353,0.353,0.353,0.354,0.354,0.354,0.354,0.354,0.354,0.354,0.354,0.354,0.354,0.354,0.354,0.355,0.355,0.355,0.355,0.356,0.356,0.356,0.356,0.357,0.357,0.357,0.357,0.358,0.358,0.358,0.358,0.358,0.358,0.358,0.359,0.359,0,0,0.36,0.36,0.36,0.361,0.361,0.361,0.361,0.361,0.362,0.362,0.362,0.362,0.362,0.363,0.363,0.363,0.363,0.363,0.363,0.364,0.364,0.364,0.364,0.364,0.364,0.364,0.365,0,0.365,0.365,0.365,0.365,0.366,0.366,0.366,0.366,0.366,0.366,0.366,0.366,0.367,0.367,0.367,0.367,0.368,0.368,0.369,0.369,0.37,0.37,0.371,0.371,0.371,0.371,0.371,0.372,0.372,0.372,0.372,0.372,0.372,0.373,0.373,0.373,0.374,0.374,0.374,0.374,0.375,0.375,0.375,0.375,0.376,0.376,0.376,0.376,0.376,0.376,0.376,0.377,0.377,0.377,0.378,0.378,0.378,0.378,0.378,0.378,0.379,0.379,0.379,0.379,0.379,0.38,0.38,0.38,0.38,0.38,0.381,0.381,0.381,0.381,0.381,0.381,0.382,0.382,0.382,0.383,0.383,0.383,0.383,0.384,0.384,0.384,0.384,0.385,0.385,0.385,0.385,0.385,0.386,0.386,0.386,0.386,0.387,0.387,0.387,0.387,0.388,0,0,0.388,0.389,0.389,0.389,0.389,0.39,0.39,0.39,0.39,0.391,0.391,0.391,0.391,0.392,0.392,0.392,0.392,0.392,0.393,0.393,0.393,0.394,0.394,0.394,0.394,0.394,0.395,0.395,0.395,0.396,0.396,0.396,0.397,0.397,0.397,0.397,0.398,0.398,0.398,0.398,0.399,0.399,0.399,0.399,0.399,0.399,0.399,0.399,0.4,0.4,0.4,0.4,0.401,0.401,0.401,0.402,0.402,0.402,0.403,0.403,0.403,0.404,0.404,0.404,0.404,0.404,0.405,0.405,0.405,0.405,0.405,0.406,0.406,0.406,0.406,0.407,0.407,0.407,0.407,0.408,0.407,0.408,0.408,0.408,0.409,0.409,0.409,0.409,0.409,0.41,0.41,0.41,0.411,0.411,0.411,0.412,0.412,0.412,0.412,0.413,0.413,0.413,0.413,0.413,0.413,0.414,0.414,0.415,0.415,0.415,0.416,0.416,0.417,0.417,0.417,0.417,0.417,0.418,0.418,0.418,0.418,0.419,0.419,0.419,0.42,0.42,0.42,0.42,0.421,0.421,0.421,0.422,0.422,0.422,0.423,0.423,0.423,0.423,0.422,0.421,0.419,0.417,0.415,0.414,0.412,0.41,0.409,0.407,0.407,0.406,0.405,0.405,0.404,0.404,0.403,0.403,0.402,0.401,0.401,0.4,0.4,0.399,0.399,0.398,0.398,0.398,0.398,0.398,0.398,0.398,0.398,0.398,0.398,0.398,0.398,0.398,0.398,0.398,0.398,0.398,0.399,0.399,0.399,0.399,0.399,0.399,0.399,0.4,0.4,0.4,0.4,0.4,0.401,0.401,0.401,0.401,0.402,0.402,0.402,0.402,0.403,0.403,0.403,0.404,0.404,0.404,0.405,0.405,0.405,0.406,0.406,0.406,0.406,0.406,0.406,0.407,0.407,0.407,0.407,0.408,0.408,0.408,0.409,0.409,0.409,0.41,0.41,0.41,0.411,0.411,0.412,0.412,0.412,0.413,0.413,0.413,0.413,0.413,0.414,0.414,0.415,0.415,0.415,0.415,0.415,0.416,0.416,0.417,0.417,0.417,0.417,0.418,0.418,0.419,0.419,0.419,0.419,0.42,0.42,0.42,0.421,0.421,0.421,0.422,0.422,0.423,0.423,0.423,0.424,0.424,0.424,0.425,0.425,0.425,0.425,0.425,0.425,0.425,0.426,0.426,0.426,0.427,0.427,0.427,0.428,0.428,0.428,0.429,0.429,0.43,0.43,0.43,0.43,0.431,0.431,0.431,0.431,0.431,0.431,0.431,0.431,0.431
0,0,0,0,0,0,0,0,0,0,0,0,0,0,0,0,0,0,0,0,0,0,0,0,0,0,0,0,0,0,0,0,0,0,0,0,0,0,0,0,0,0,0,0,0,0,0,0,0,0,0,0,0,0,0,0,0.348,0.348,0.348,0.348,0.348,0.348,0.348,0.348,0.349,0.349,0.349,0.349,0.349,0.349,0.35,0.35,0.35,0.351,0.351,0.351,0.351,0.352,0.352,0.352,0.352,0.353,0.353,0.353,0.354,0.353,0.354,0.354,0.354,0.354,0.354,0.354,0.354,0.354,0.354,0.354,0.355,0.355,0.355,0.355,0.356,0.356,0.356,0.356,0.357,0.357,0.357,0.357,0.357,0.357,0.357,0.358,0.357,0.358,0.358,0.358,0.358,0,0,0.359,0.36,0.36,0.36,0.361,0.361,0.361,0.361,0.361,0.361,0.362,0.362,0.362,0.362,0.362,0.362,0.363,0.363,0.363,0.363,0.363,0.364,0.364,0.364,0.364,0.364,0.364,0.364,0.364,0.364,0.365,0.365,0.365,0.366,0.366,0.366,0.366,0.366,0.366,0.366,0.366,0.367,0.367,0.367,0.368,0.368,0.369,0.369,0.37,0.37,0.37,0.371,0.371,0.371,0.371,0.371,0.371,0.371,0.372,0.372,0.372,0.372,0.373,0.373,0.373,0.374,0.374,0.374,0.374,0.374,0.375,0.375,0.375,0.375,0.376,0.376,0.376,0.376,0.376,0.376,0.377,0.377,0.377,0.377,0.378,0.378,0.378,0.378,0.378,0.379,0.379,0.379,0.379,0.379,0.38,0.38,0.38,0.38,0.38,0.38,0.38,0.381,0.381,0.381,0.381,0.382,0.382,0.382,0.383,0.383,0.383,0.383,0.383,0.384,0.384,0.384,0.384,0.385,0.385,0.385,0.385,0.386,0.386,0.386,0.386,0.386,0.386,0.387,0,0,0,0.388,0.388,0.389,0.389,0.389,0.39,0.39,0.39,0.39,0.39,0.391,0.391,0.391,0.391,0.391,0.392,0.392,0.392,0.392,0.393,0.393,0.393,0.393,0.394,0.394,0.394,0.395,0.395,0.396,0.396,0.396,0.396,0.397,0.397,0.397,0.397,0.398,0.398,0.398,0.398,0.398,0.398,0.399,0.399,0.399,0.399,0.399,0.399,0.399,0.399,0.4,0.4,0.4,0.401,0.401,0.401,0.402,0.402,0.402,0.403,0.403,0.403,0.403,0.403,0.404,0.404,0.404,0.404,0.404,0.405,0.405,0.406,0.406,0.406,0.406,0.406,0.407,0.407,0.407,0.407,0.407,0.407,0.407,0.408,0.408,0.408,0.408,0.409,0.409,0.409,0.409,0.41,0.41,0.411,0.411,0.411,0.411,0.412,0.412,0.412,0.412,0.413,0.413,0.413,0.414,0.414,0.415,0.415,0.415,0.416,0.416,0.416,0.416,0.416,0.417,0.417,0.417,0.417,0.417,0.418,0.418,0.418,0.419,0.419,0.419,0.419,0.419,0.42,0.42,0.421,0.421,0.421,0.422,0.422,0.422,0.423,0.423,0.422,0.42,0.419,0.417,0.415,0.413,0.412,0.41,0.409,0.407,0.407,0.406,0.405,0.405,0.404,0.404,0.403,0.402,0.402,0.401,0.401,0.4,0.4,0.399,0.399,0.398,0.398,0.398,0.398,0.398,0.398,0.398,0.397,0.397,0.398,0.398,0.398,0.398,0.398,0.398,0.398,0.398,0.398,0.398,0.398,0.398,0.398,0.399,0.399,0.399,0.399,0.399,0.399,0.399,0.4,0.4,0.4,0.401,0.401,0.401,0.402,0.402,0.402,0.403,0.403,0.403,0.403,0.404,0.404,0.404,0.405,0.405,0.405,0.405,0.405,0.406,0.406,0.406,0.406,0.406,0.407,0.407,0.407,0.408,0.408,0.408,0.409,0.409,0.409,0.41,0.41,0.41,0.411,0.411,0.412,0.412,0.412,0.413,0.413,0.413,0.413,0.413,0.414,0.414,0.414,0.415,0.415,0.415,0.415,0.416,0.416,0.416,0.417,0.417,0.417,0.418,0.418,0.418,0.419,0.419,0.419,0.419,0.42,0.42,0.421,0.421,0.422,0.422,0.423,0.423,0.423,0.423,0.424,0.424,0.424,0.424,0.424,0.425,0.425,0.425,0.425,0.425,0.426,0.426,0.426,0.426,0.427,0.427,0.428,0.428,0.428,0.429,0.429,0.429,0.43,0.43,0.43,0.43,0.431,0.431,0.431,0.431,0.431,0.431
0,0,0,0,0,0,0,0,0,0,0,0,0,0,0,0,0,0,0,0,0,0,0,0,0,0,0,0,0,0,0,0,0,0,0,0,0,0,0,0,0,0,0,0,0,0,0,0,0,0,0,0,0,0,0,0,0.347,0.347,0.348,0.347,0.348,0.348,0.348,0.348,0.348,0.348,0.349,0.349,0.349,0.349,0.349,0.35,0.35,0.35,0.35,0.351,0.351,0.351,0.352,0.352,0.352,0.352,0.353,0.353,0.353,0.353,0.353,0.353,0.353,0.354,0.354,0.354,0.354,0.354,0.354,0.354,0.354,0.354,0.355,0.355,0.355,0.355,0.355,0.356,0.356,0.356,0.356,0.356,0.357,0.357,0.357,0.357,0.357,0.357,0.357,0.357,0.358,0.358,0.358,0.359,0.359,0.36,0.36,0.36,0.36,0.36,0.361,0.361,0.361,0.361,0.361,0.362,0.362,0.362,0.362,0.362,0.362,0.363,0.363,0.363,0.363,0.363,0.363,0.363,0.364,0.364,0.364,0.364,0.364,0.364,0.364,0.365,0.365,0.365,0.365,0.365,0.366,0.366,0.366,0.366,0.366,0.366,0.367,0.367,0.368,0.368,0.369,0.369,0.37,0.37,0.37,0.37,0.371,0.371,0.371,0.371,0.371,0.371,0.371,0.372,0.372,0.372,0.372,0.373,0.373,0.373,0.373,0.374,0.374,0.374,0.374,0.374,0.375,0.375,0.375,0.375,0.375,0.376,0.376,0.376,0.376,0.377,0.377,0.377,0.377,0.378,0.378,0.378,0.378,0.378,0.378,0.379,0.379,0.379,0.379,0.38,0.38,0.38,0.38,0.38,0.38,0.38,0.381,0.381,0.381,0.381,0.382,0.382,0.382,0.382,0.383,0.383,0.383,0.383,0.383,0.384,0.384,0.384,0.385,0.385,0.385,0.385,0.385,0.385,0.386,0.386,0.386,0.386,0.386,0.387,0.387,0.388,0.388,0.389,0.389,0.389,0.39,0.39,0.39,0.39,0.39,0.39,0.391,0.391,0.391,0.391,0.391,0.392,0.392,0.392,0.392,0.393,0.393,0.393,0.393,0.394,0.394,0.395,0.395,0.395,0.396,0.396,0.396,0.396,0.397,0.397,0.397,0.397,0.398,0.398,0.398,0.398,0.398,0.398,0.398,0.398,0.398,0.398,0.399,0.399,0.399,0.399,0.4,0.4,0.4,0.401,0.401,0.402,0.402,0.402,0.402,0.403,0.403,0.403,0.403,0.403,0.403,0.404,0.404,0.404,0.405,0.405,0.405,0.406,0.406,0.406,0.406,0.406,0.407,0.407,0.407,0.407,0.407,0.407,0.407,0.407,0.408,0.408,0.408,0.409,0.409,0.409,0.409,0.41,0.41,0.41,0.411,0.411,0.411,0.412,0.412,0.412,0.413,0.413,0.413,0.414,0.414,0.415,0.415,0.415,0.415,0.415,0.416,0.416,0.416,0.416,0.417,0.417,0.417,0.417,0.417,0.418,0.418,0.418,0.418,0.419,0.419,0.419,0.419,0.42,0.421,0.421,0.421,0.421,0.422,0.422,0.422,0.421,0.42,0.419,0.417,0.415,0.413,0.412,0.41,0.409,0.407,0.406,0.406,0.405,0.404,0.404,0.403,0.403,0.402,0.401,0.401,0.4,0.399,0.399,0.399,0.398,0.398,0.398,0.397,0.397,0.397,0.397,0.397,0.397,0.397,0.397,0.397,0.397,0.397,0.397,0.397,0.397,0.397,0.397,0.398,0.398,0.398,0.398,0.398,0.398,0.398,0.398,0.399,0.399,0.399,0.399,0.399,0.4,0.4,0.4,0.401,0.401,0.401,0.401,0.402,0.402,0.402,0.403,0.403,0.403,0.404,0.404,0.404,0.404,0.405,0.405,0.405,0.405,0.405,0.406,0.406,0.406,0.406,0.407,0.407,0.407,0.407,0.408,0.408,0.409,0.409,0.409,0.41,0.41,0.41,0.411,0.411,0.412,0.412,0.412,0.412,0.412,0.413,0.413,0.413,0.414,0.414,0.414,0.415,0.415,0.415,0.415,0.416,0.416,0.416,0.417,0.417,0.417,0.417,0.418,0.418,0.418,0.419,0.419,0.419,0.42,0.421,0.421,0.421,0.422,0.422,0.423,0.423,0.423,0.424,0.423,0.424,0.424,0.424,0.424,0.424,0.425,0.425,0.425,0.425,0.425,0.426,0.426,0.427,0.427,0.427,0.428,0.428,0.428,0.429,0.429,0.429,0.43,0.43,0.43,0.43,0.43,0.43,0.43,0.43
0,0,0,0,0,0,0,0,0,0,0,0,0,0,0,0,0,0,0,0,0,0,0,0,0,0,0,0,0,0,0,0,0,0,0,0,0,0,0,0,0,0,0,0,0,0,0,0,0,0,0,0,0,0,0,0.347,0.347,0.347,0.347,0.347,0.348,0.348,0.348,0.348,0.348,0.348,0.348,0.349,0.349,0.349,0.349,0.349,0.349,0.35,0.35,0.35,0.351,0.351,0.351,0.352,0.352,0.352,0.352,0.352,0.353,0.353,0.353,0.353,0.353,0.353,0.353,0.353,0.353,0.354,0.354,0.354,0.354,0.354,0.354,0.354,0.355,0.355,0.355,0.355,0.355,0.356,0.356,0.356,0.356,0.356,0.356,0.356,0.356,0.357,0.357,0.357,0.357,0.358,0.358,0.358,0.359,0.359,0.359,0.36,0.36,0.36,0.36,0.36,0.36,0.361,0.361,0.361,0.361,0.361,0.361,0.362,0.362,0.362,0.362,0.363,0.363,0.363,0.363,0.363,0.363,0.363,0.363,0.363,0.363,0.364,0.364,0.364,0.364,0.365,0.365,0.365,0.365,0.365,0.366,0.366,0.366,0.366,0.366,0.367,0.367,0.368,0.368,0.369,0.369,0.369,0.37,0.37,0.37,0.37,0.371,0.371,0.371,0.371,0.371,0.371,0.371,0.372,0.372,0.372,0.372,0.373,0.373,0.373,0.373,0.374,0.374,0.374,0.374,0.374,0.375,0.375,0.375,0.375,0.376,0.376,0.376,0.376,0.376,0.377,0.377,0.377,0.377,0.377,0.378,0.378,0.378,0.378,0.378,0.379,0.379,0.379,0.38,0.38,0.38,0.38,0.38,0.38,0.38,0.381,0.381,0.381,0.381,0.381,0.382,0.382,0.382,0.382,0.383,0.383,0.383,0.383,0.383,0.384,0.384,0.384,0.385,0.385,0.385,0.385,0.385,0.385,0.385,0.386,0.386,0.386,0.386,0.387,0.388,0.388,0.388,0.389,0.389,0.389,0.389,0.39,0.39,0.39,0.39,0.39,0.39,0.39,0.391,0.391,0.391,0.391,0.392,0.392,0.392,0.393,0.393,0.393,0.394,0.394,0.394,0.395,0.395,0.395,0.395,0.396,0.396,0.396,0.397,0.397,0.397,0.397,0.398,0.398,0.398,0.398,0.398,0.398,0.398,0.398,0.398,0.398,0.399,0.399,0.399,0.399,0.4,0.4,0.401,0.401,0.401,0.402,0.402,0.402,0.402,0.402,0.403,0.403,0.403,0.403,0.403,0.404,0.404,0.404,0.404,0.405,0.405,0.405,0.406,0.406,0.406,0.406,0.406,0.406,0.406,0.407,0.407,0.407,0.407,0.407,0.407,0.408,0.408,0.408,0.409,0.409,0.41,0.41,0.41,0.411,0.411,0.411,0.412,0.412,0.412,0.412,0.413,0.413,0.414,0.414,0.414,0.415,0.415,0.415,0.415,0.415,0.415,0.416,0.416,0.416,0.416,0.416,0.417,0.417,0.417,0.417,0.418,0.418,0.418,0.418,0.419,0.419,0.42,0.42,0.421,0.421,0.421,0.422,0.422,0.421,0.42,0.419,0.417,0.415,0.413,0.412,0.41,0.409,0.407,0.406,0.406,0.405,0.404,0.404,0.403,0.402,0.402,0.401,0.4,0.4,0.399,0.399,0.398,0.398,0.398,0.397,0.397,0.397,0.397,0.397,0.397,0.397,0.397,0.397,0.397,0.396,0.396,0.396,0.397,0.397,0.397,0.397,0.397,0.397,0.397,0.397,0.398,0.398,0.398,0.398,0.398,0.398,0.398,0.399,0.399,0.399,0.399,0.399,0.4,0.4,0.4,0.401,0.401,0.401,0.402,0.402,0.402,0.403,0.403,0.403,0.404,0.404,0.404,0.404,0.404,0.404,0.405,0.405,0.405,0.406,0.406,0.406,0.406,0.407,0.407,0.407,0.407,0.408,0.408,0.409,0.409,0.41,0.41,0.41,0.411,0.411,0.411,0.411,0.412,0.412,0.412,0.412,0.412,0.413,0.413,0.413,0.414,0.414,0.414,0.415,0.415,0.415,0.416,0.416,0.416,0.417,0.417,0.417,0.417,0.417,0.418,0.418,0.419,0.419,0.42,0.42,0.421,0.421,0.421,0.422,0.422,0.423,0.423,0.423,0.423,0.423,0.423,0.424,0.424,0.424,0.424,0.424,0.425,0.425,0.425,0.425,0.426,0.426,0.427,0.427,0.427,0.428,0.428,0.428,0.429,0.429,0.429,0.429,0.429,0.429,0.429,0.429,0.429
0,0,0,0,0,0,0,0,0,0,0,0,0,0,0,0,0,0,0,0,0,0,0,0,0,0,0,0,0,0,0,0,0,0,0,0,0,0,0,0,0,0,0,0,0,0,0,0,0,0,0,0,0,0,0.347,0.347,0.347,0.347,0.347,0.347,0.347,0.347,0.348,0.348,0.348,0.348,0.348,0.348,0.348,0.349,0.349,0.349,0.349,0.349,0.35,0.35,0.35,0.35,0.351,0.351,0.351,0.352,0.352,0.352,0.352,0.352,0.352,0.353,0.353,0.353,0.353,0.353,0.353,0.353,0.353,0.353,0.354,0.354,0.354,0.354,0.354,0.354,0.354,0.355,0.355,0.355,0.355,0.355,0.356,0.356,0.356,0.356,0.356,0.356,0.356,0.357,0.357,0.357,0.358,0.358,0.358,0.358,0.359,0.359,0.359,0.359,0.36,0.36,0.36,0.36,0.36,0.36,0.361,0.361,0.361,0.361,0.361,0.362,0.362,0.362,0.362,0.362,0.363,0.363,0.363,0.363,0.363,0.363,0.363,0.364,0.364,0.364,0.364,0.364,0.364,0.364,0.365,0.365,0.365,0.365,0.366,0.366,0.366,0.366,0.367,0.367,0.368,0.368,0.369,0.369,0.369,0.369,0.37,0.37,0.37,0.37,0.37,0.37,0.371,0.371,0.371,0.371,0.371,0.371,0.372,0.372,0.372,0.373,0.373,0.373,0.373,0.373,0.374,0.374,0.374,0.374,0.374,0.375,0.375,0.375,0.376,0.376,0.376,0.376,0.376,0.376,0.377,0.377,0.377,0.377,0.378,0.378,0.378,0.378,0.378,0.379,0.379,0.379,0.379,0.38,0.38,0.38,0.38,0.38,0.38,0.38,0.381,0.381,0.381,0.381,0.381,0.382,0.382,0.382,0.382,0.383,0.383,0.383,0.384,0.384,0.384,0.384,0.385,0.384,0.385,0.385,0.385,0.385,0.385,0.386,0.386,0.386,0.387,0.387,0.388,0.388,0.389,0.389,0.389,0.389,0.39,0.39,0.39,0.39,0.39,0.39,0.39,0.391,0.391,0.391,0.391,0.392,0.392,0.392,0.392,0.393,0.393,0.393,0.394,0.394,0.394,0.395,0.395,0.395,0.395,0.396,0.396,0.396,0.397,0.397,0.397,0.397,0.397,0.398,0.398,0.398,0.398,0.398,0.398,0.398,0.398,0.399,0.399,0.399,0.399,0.4,0.4,0.401,0.401,0.401,0.401,0.402,0.402,0.402,0.402,0.402,0.402,0.403,0.403,0.403,0.403,0.404,0.404,0.404,0.404,0.405,0.405,0.405,0.406,0.406,0.406,0.406,0.406,0.406,0.406,0.407,0.407,0.407,0.407,0.407,0.407,0.408,0.408,0.409,0.409,0.409,0.41,0.41,0.41,0.411,0.411,0.411,0.412,0.412,0.412,0,0,0.413,0.414,0.414,0.414,0.415,0.415,0.415,0.415,0.415,0.415,0.415,0.415,0.416,0.416,0.416,0.417,0.417,0.417,0.417,0.417,0.418,0.418,0.419,0.419,0.42,0.42,0.421,0.421,0.421,0.421,0.421,0.42,0.418,0.417,0.415,0.413,0.412,0.41,0.409,0.407,0.406,0.406,0.405,0.404,0.403,0.403,0.402,0.401,0.401,0.4,0.399,0.399,0.398,0.398,0.397,0.397,0.397,0.397,0.396,0.396,0.396,0.396,0.396,0.396,0.396,0.396,0.396,0.396,0.396,0.396,0.396,0.396,0.396,0.397,0.397,0.397,0.397,0.397,0.397,0.398,0.398,0.398,0.398,0.398,0.398,0.398,0.399,0.399,0.399,0.399,0.399,0.4,0.4,0.4,0.401,0.401,0.401,0.402,0.402,0.402,0.403,0.403,0.403,0.403,0.403,0.404,0.404,0.404,0.404,0.405,0.405,0.405,0.406,0.406,0.406,0.406,0.406,0.407,0.407,0.408,0.408,0.409,0.409,0.409,0.41,0.41,0.41,0.41,0.411,0.411,0.411,0.411,0.412,0.412,0.412,0.412,0.413,0.413,0.413,0.413,0.414,0.414,0.415,0.415,0.415,0.416,0.416,0.416,0.416,0.417,0.417,0.417,0.417,0.418,0.418,0.419,0.419,0.42,0.42,0.421,0.421,0.421,0.422,0.422,0.422,0.423,0.423,0.423,0.423,0.423,0.423,0.423,0.424,0.424,0.424,0.424,0.425,0.425,0.425,0.426,0.426,0.427,0.427,0.428,0.428,0.428,0.428,0.428,0.428,0.429,0.429,0.429,0.429,0.429
0,0,0,0,0,0,0,0,0,0,0,0,0,0,0,0,0,0,0,0,0,0,0,0,0,0,0,0,0,0,0,0,0,0,0,0,0,0,0,0,0,0,0,0,0,0,0,0,0,0,0,0,0,0,0,0,0.347,0.347,0.347,0.347,0.347,0.347,0.347,0.348,0.348,0.348,0.348,0.348,0.348,0.348,0.349,0.349,0.349,0.349,0.349,0.349,0.35,0.35,0.35,0.35,0.351,0.351,0.351,0.351,0.352,0.352,0.352,0.352,0.352,0.352,0.353,0.353,0.353,0.353,0.353,0.353,0.353,0.353,0.353,0.354,0.354,0.354,0.354,0.354,0.354,0.354,0.355,0.355,0.355,0.355,0.355,0.356,0.356,0.356,0.356,0.356,0.357,0.357,0.357,0.357,0.357,0.358,0.358,0.358,0.359,0.359,0.359,0.359,0.359,0.359,0.36,0.36,0.36,0.36,0.36,0.361,0.361,0.361,0.361,0.362,0.362,0.362,0.362,0.362,0.363,0.363,0.363,0.363,0.363,0.363,0.363,0.363,0.364,0.364,0.364,0.364,0.364,0.364,0.365,0.365,0.365,0.365,0.366,0.366,0.366,0.367,0.367,0.368,0.368,0.368,0.369,0.369,0.369,0.369,0.369,0.37,0.37,0.37,0.37,0.37,0.371,0.371,0.371,0.371,0.371,0.371,0.372,0.372,0.372,0.372,0.373,0.373,0.373,0.373,0.374,0.374,0.374,0.374,0.375,0.375,0.375,0.375,0.376,0.376,0.376,0.376,0.376,0.376,0.377,0.377,0.377,0.377,0.378,0.378,0.378,0.378,0.379,0.379,0.379,0.379,0.379,0.379,0.38,0.38,0.38,0.38,0.38,0.38,0.381,0.381,0.381,0.381,0.381,0.382,0.382,0.382,0.382,0.383,0.383,0.383,0.384,0.384,0.384,0.384,0.384,0.384,0.384,0.385,0.385,0.385,0.385,0.386,0.386,0.387,0.387,0.388,0.388,0.388,0.389,0.389,0.389,0.389,0.389,0.389,0.39,0.39,0.39,0.39,0.39,0.39,0.391,0.391,0.391,0.391,0.392,0.392,0.392,0.393,0.393,0.393,0.394,0.394,0.394,0.395,0.395,0.395,0.396,0.396,0.396,0.396,0.396,0.397,0.397,0.397,0.397,0.397,0.397,0.397,0.397,0.398,0.398,0.398,0.398,0.399,0.399,0.399,0.399,0.4,0.4,0.4,0.401,0.401,0.401,0.401,0.401,0.402,0.402,0.402,0.402,0.402,0.403,0.403,0.403,0.404,0.404,0.404,0.405,0.405,0.405,0.406,0.405,0.406,0.406,0.406,0.406,0.406,0.406,0.406,0.406,0.407,0.407,0.407,0.408,0.408,0.408,0.409,0.409,0.409,0.41,0.41,0.41,0.411,0.411,0.411,0.412,0,0.413,0.413,0.413,0.413,0.413,0.414,0.414,0.414,0.415,0.414,0.415,0.415,0.415,0.415,0.415,0.416,0.416,0.416,0.416,0.417,0.417,0.417,0.418,0.418,0.419,0.419,0.42,0.42,0.42,0.421,0.421,0.42,0.419,0.418,0.417,0.415,0.413,0.412,0.41,0.409,0.407,0.406,0.405,0.404,0.404,0.403,0.402,0.402,0.401,0.4,0.399,0.399,0.398,0.398,0.397,0.397,0.397,0.396,0.396,0.396,0.396,0.396,0.396,0.395,0.395,0.395,0.395,0.396,0.395,0.395,0.395,0.396,0.396,0.396,0.396,0.396,0.396,0.396,0.397,0.397,0.397,0.397,0.397,0.398,0.398,0.398,0.398,0.398,0.398,0.399,0.399,0.399,0.399,0.399,0.4,0.4,0.4,0.401,0.401,0.401,0.402,0.402,0.402,0.403,0.403,0.403,0.403,0.403,0.403,0.404,0.404,0.404,0.404,0.405,0.405,0.406,0.406,0.406,0.406,0.407,0.407,0.407,0.408,0.408,0.409,0.409,0.409,0.41,0.41,0.41,0.41,0.41,0.411,0.411,0.411,0.412,0.412,0.412,0.412,0.413,0.413,0.413,0.414,0.414,0.414,0.415,0.415,0.415,0.415,0.415,0.416,0.416,0.416,0.417,0.417,0.418,0.418,0.419,0.419,0.419,0.42,0.42,0.421,0.421,0.422,0.422,0.422,0.422,0.422,0.423,0.423,0.423,0.423,0.423,0.423,0.424,0.424,0.424,0.425,0.425,0.425,0.426,0.426,0.426,0.427,0.427,0.427,0.428,0.428,0.428,0.428,0.428,0.428,0.428,0.428
0,0,0,0,0,0,0,0,0,0,0,0,0,0,0,0,0,0,0,0,0,0,0,0,0,0,0,0,0,0,0,0,0,0,0,0,0,0,0,0,0,0,0,0,0,0,0,0,0,0,0,0,0,0,0,0,0,0.346,0.347,0.347,0.347,0.347,0.347,0.347,0.347,0.348,0.348,0.348,0.348,0.348,0.348,0.348,0.348,0.349,0.349,0.349,0.349,0.349,0.35,0.35,0.35,0.35,0.351,0.351,0.351,0.351,0.351,0.352,0.352,0,0,0.352,0.352,0.352,0.352,0.353,0.353,0.353,0.353,0.353,0.353,0.353,0.353,0.354,0.354,0.354,0.354,0.354,0.355,0.355,0.355,0.355,0.355,0.356,0.356,0.356,0.356,0.357,0.357,0.357,0.357,0.357,0.358,0.358,0.358,0.358,0.358,0.359,0.359,0.359,0.359,0.359,0.36,0.36,0.36,0.36,0.36,0.361,0.361,0.361,0.361,0.361,0.362,0.362,0.362,0.362,0.362,0.362,0.362,0.363,0.363,0.363,0.363,0.363,0.364,0.364,0.364,0.364,0.364,0.365,0.365,0.365,0.365,0.366,0.366,0.366,0.367,0.367,0.368,0.368,0.368,0.369,0.369,0.369,0.369,0.369,0.369,0.369,0.37,0.37,0.37,0.37,0.37,0.371,0.371,0.371,0.371,0.371,0.372,0.372,0.372,0.372,0.373,0.373,0.373,0.373,0.374,0.374,0.374,0.374,0.375,0.375,0.375,0.375,0.375,0.375,0.376,0.376,0.376,0.376,0.377,0.377,0.377,0.377,0.378,0.378,0.378,0.378,0.378,0.379,0.379,0.379,0.379,0.38,0.38,0.38,0.38,0.38,0.38,0.38,0.38,0.381,0.381,0.381,0.381,0.382,0.382,0.382,0.383,0.383,0.383,0.383,0.383,0.384,0.384,0.384,0.384,0.384,0.385,0.385,0.385,0.385,0.386,0.386,0.387,0.387,0.387,0.388,0.388,0.388,0.389,0.389,0.389,0.389,0.389,0.389,0.389,0.39,0.39,0.39,0.39,0.39,0.391,0.391,0.391,0.391,0.392,0.392,0.392,0.393,0.393,0.393,0.394,0.394,0.394,0.395,0.395,0.395,0.395,0.395,0.396,0.396,0.396,0.396,0.396,0.396,0.397,0.397,0.397,0.397,0.397,0.398,0.398,0.398,0.398,0.398,0.399,0.399,0.399,0.4,0.4,0.4,0.4,0.401,0.401,0.401,0.401,0.401,0.402,0.402,0.402,0.402,0.403,0.403,0.403,0.404,0.404,0.404,0.404,0.405,0.405,0.405,0.405,0.405,0.405,0.406,0.406,0.406,0.406,0.406,0.406,0.407,0.407,0.407,0.408,0.408,0.408,0.409,0.409,0.409,0.41,0.41,0.41,0.411,0.411,0.412,0.412,0.412,0.413,0.413,0.413,0.413,0.413,0.414,0.414,0.414,0.414,0.414,0.414,0.415,0.415,0.415,0.415,0.416,0.416,0.416,0.417,0.417,0.417,0.418,0.418,0.419,0.419,0.42,0.42,0.42,0.42,0.42,0.419,0.418,0.417,0.415,0.413,0.412,0.41,0.409,0.407,0.406,0.405,0.404,0.403,0.403,0.402,0.401,0.401,0.4,0.399,0.398,0.398,0.397,0.397,0.396,0.396,0.396,0.396,0.395,0.395,0.395,0.395,0.395,0.395,0.395,0.395,0.395,0.395,0.395,0.395,0.395,0.395,0.395,0.396,0.396,0.396,0.396,0.396,0.397,0.397,0.397,0.397,0.397,0.397,0.397,0.397,0.398,0.398,0.398,0.398,0.398,0.398,0.399,0.399,0.399,0.4,0.4,0.401,0.401,0.401,0.401,0.402,0.402,0.402,0.402,0.403,0.403,0.403,0.403,0.403,0.404,0.404,0.404,0.404,0.405,0.405,0.405,0.406,0.406,0.406,0.407,0.407,0.407,0.408,0.408,0.409,0.409,0.409,0.409,0.41,0.41,0.41,0.41,0.411,0.411,0.411,0.412,0.412,0.412,0.412,0.413,0.413,0.413,0.414,0.414,0.414,0.414,0.415,0.415,0.415,0.415,0.416,0.416,0.416,0.417,0.417,0.418,0.418,0.419,0.419,0.42,0.42,0.421,0.421,0.421,0.421,0.421,0.422,0.422,0.422,0.422,0.423,0.423,0.423,0.423,0.424,0.424,0.424,0.425,0.425,0.425,0.425,0.426,0.426,0.426,0.427,0.427,0.427,0.427,0.427,0.427,0.427,0.427,0.427
0,0,0,0,0,0,0,0,0,0,0,0,0,0,0,0,0,0,0,0,0,0,0,0,0,0,0,0,0,0,0,0,0,0,0,0,0,0,0,0,0,0,0,0,0,0,0,0,0,0,0,0,0,0,0,0,0.346,0.346,0.346,0.346,0.346,0.347,0.347,0.347,0.347,0.347,0.347,0.347,0.348,0.348,0.348,0.348,0.348,0.348,0.349,0.349,0.349,0.349,0.349,0.349,0.349,0.35,0.35,0.35,0.35,0.35,0.351,0.351,0.351,0,0,0.352,0.352,0.352,0.352,0.352,0.352,0.352,0.352,0.353,0.353,0.353,0.353,0.353,0.353,0.354,0.354,0.354,0.354,0.354,0.355,0.355,0.355,0.355,0.355,0.356,0.356,0.356,0.356,0.357,0.357,0.357,0.357,0.357,0.358,0.358,0.358,0.358,0.358,0.358,0.359,0.359,0.359,0.359,0.359,0.36,0.36,0.36,0.361,0.361,0.361,0.361,0.361,0.361,0.362,0.361,0.362,0.362,0.362,0.362,0.362,0.363,0.363,0.363,0.363,0.364,0.364,0.364,0.364,0.364,0.365,0.365,0.365,0.365,0.366,0.366,0.366,0.367,0.367,0.367,0.368,0.368,0.368,0.368,0.369,0.369,0.369,0.369,0.369,0.369,0.369,0.37,0.37,0.37,0.37,0.37,0.371,0.371,0.371,0.371,0.372,0.372,0.372,0.372,0.373,0.373,0.373,0.373,0.374,0.374,0.374,0.374,0.374,0.374,0.374,0.375,0.375,0.375,0.376,0.376,0.376,0.376,0.377,0.377,0.377,0.377,0.378,0.378,0.378,0.378,0.378,0.379,0.379,0.379,0.379,0.379,0.379,0.379,0.38,0.38,0.38,0.38,0.38,0.381,0.381,0.381,0.382,0.382,0.382,0.382,0.383,0.383,0.383,0.383,0.384,0.384,0.384,0.384,0.384,0.384,0.385,0.385,0.385,0.386,0.386,0.387,0.387,0.387,0.387,0.388,0.388,0.388,0.388,0.389,0.389,0.389,0.389,0.389,0.389,0.389,0.39,0.39,0.39,0.39,0.391,0.391,0.391,0.392,0.392,0.392,0.392,0.393,0.393,0.393,0.394,0.394,0.394,0.394,0.394,0.395,0.395,0.395,0.395,0.395,0.395,0.396,0.396,0.396,0.396,0.397,0.397,0.397,0.397,0.397,0.398,0.398,0.398,0.399,0.399,0.399,0.399,0.399,0.4,0.4,0.4,0.401,0.401,0.401,0.401,0.401,0.401,0.402,0.402,0.402,0.403,0.403,0.403,0.404,0.404,0.404,0.404,0.404,0.405,0.405,0.405,0.405,0.405,0.405,0.406,0.406,0.406,0.406,0.407,0.407,0.407,0.407,0.408,0.408,0.409,0.409,0.409,0.409,0.41,0.41,0.41,0.411,0.411,0.412,0.412,0.412,0.412,0.413,0.413,0.413,0.413,0.413,0.413,0.414,0.414,0.414,0.414,0.415,0.415,0.415,0.415,0.415,0.416,0.416,0.417,0.417,0.418,0.418,0.419,0.419,0.419,0.419,0.419,0.419,0.419,0.418,0.416,0.415,0.413,0.412,0.41,0.409,0.407,0.406,0.405,0.404,0.403,0.402,0.402,0.401,0.4,0.399,0.399,0.398,0.397,0.397,0.396,0.396,0.396,0.396,0.395,0.395,0.395,0.395,0.395,0.394,0.394,0.394,0.394,0.395,0.394,0.394,0.394,0.395,0.395,0.395,0.395,0.395,0.395,0.395,0.396,0.396,0.396,0.396,0.396,0.397,0.397,0.397,0.397,0.397,0.397,0.398,0.398,0.398,0.398,0.398,0.398,0.399,0.399,0.399,0.4,0.4,0.4,0.401,0.401,0.401,0.401,0.402,0.402,0.402,0.402,0.403,0.403,0.403,0.403,0.404,0.404,0.404,0.404,0.405,0.405,0.406,0.406,0.406,0.407,0.407,0.407,0.408,0.408,0.408,0.408,0.409,0.409,0.409,0.409,0.41,0.41,0.41,0.411,0.411,0.411,0.412,0.412,0.412,0.412,0.413,0.413,0.413,0.413,0.414,0.414,0.414,0.415,0.415,0.415,0.415,0.416,0.416,0.417,0.417,0.417,0.418,0.419,0.419,0.419,0.42,0.42,0.42,0.421,0.421,0.421,0.421,0.422,0.422,0.422,0.422,0.423,0.423,0.423,0.423,0.424,0.424,0.424,0.425,0.425,0.425,0.425,0.426,0.426,0.426,0.426,0.426,0.426,0.426,0.426,0.426,0.426
0,0,0,0,0,0,0,0,0,0,0,0,0,0,0,0,0,0,0,0,0,0,0,0,0,0,0,0,0,0,0,0,0,0,0,0,0,0,0,0,0,0,0,0,0,0,0,0,0,0,0,0,0.345,0,0,0.346,0.346,0.345,0.346,0.346,0.346,0.346,0.346,0.347,0.347,0.347,0.347,0.347,0.347,0.347,0.347,0.348,0.348,0.348,0.348,0.348,0.348,0.349,0.349,0.349,0.349,0.349,0.349,0.35,0.35,0.35,0.35,0.35,0.35,0.351,0.351,0.351,0.351,0.351,0.351,0.351,0.352,0.352,0.352,0.352,0.352,0.352,0.352,0.353,0.353,0.353,0.353,0.354,0.354,0.354,0.354,0.355,0.355,0.355,0.355,0.355,0.355,0.356,0.356,0.356,0.356,0.356,0.357,0.357,0.357,0.357,0.357,0.358,0.358,0.358,0.358,0.358,0.359,0.359,0.359,0.359,0.36,0.36,0.36,0.36,0.36,0.361,0.361,0.361,0.361,0.361,0.361,0.362,0.362,0.362,0.362,0.362,0.362,0.363,0.363,0.363,0.363,0.363,0.364,0.364,0.364,0.364,0.364,0.365,0.365,0.365,0.366,0.366,0.367,0.367,0.367,0.368,0.368,0.368,0.368,0.368,0.368,0.368,0.369,0.369,0.369,0.369,0.369,0.369,0.37,0.37,0.37,0.371,0.371,0.371,0.371,0.371,0.371,0.372,0.372,0.372,0.372,0.373,0.373,0.373,0.374,0.374,0.374,0.374,0.374,0.374,0.375,0.375,0.375,0.376,0.376,0.376,0.376,0.377,0.377,0.377,0.377,0.377,0.377,0.378,0.378,0.378,0.378,0.378,0.379,0.378,0.379,0.379,0.379,0.379,0.38,0.38,0.38,0.38,0.38,0.381,0.381,0.381,0.382,0.382,0.382,0.382,0.383,0.383,0.383,0.383,0.383,0.384,0.384,0.384,0.384,0.384,0.385,0.385,0.385,0.386,0.386,0.387,0.387,0.387,0.388,0.387,0.388,0.388,0.388,0.388,0.389,0.389,0.389,0.389,0.389,0.39,0.39,0.39,0.39,0.39,0.391,0.391,0.391,0.392,0.392,0.392,0.393,0.393,0.393,0.393,0.394,0.394,0.394,0.394,0.394,0.394,0.394,0.395,0.395,0.395,0.395,0.396,0.396,0.396,0.396,0.397,0.397,0.397,0.397,0.397,0.398,0.398,0.398,0.399,0.399,0.399,0.399,0.399,0.4,0.4,0.4,0.4,0.4,0.401,0.401,0.401,0.401,0.402,0.402,0.402,0.403,0.403,0.403,0.404,0.404,0.404,0.404,0.404,0.404,0.404,0.404,0.405,0.405,0.405,0.406,0.406,0.406,0.406,0.407,0.407,0.407,0.408,0.408,0.408,0.409,0.409,0.409,0.409,0.41,0.41,0.41,0.411,0.411,0.412,0.412,0.412,0.412,0.412,0.412,0.413,0.413,0.413,0.413,0.413,0.414,0.414,0.415,0.415,0.415,0.415,0.415,0.416,0.416,0.417,0.417,0.418,0.418,0.418,0.418,0.419,0.419,0.419,0.418,0.417,0.416,0.415,0.413,0.412,0.41,0.409,0.407,0.406,0.404,0.404,0.403,0.402,0.401,0.401,0.4,0.399,0.398,0.398,0.397,0.397,0.396,0.396,0.396,0.395,0.395,0.395,0.394,0.394,0.394,0.394,0.394,0.394,0.394,0.394,0.394,0.394,0.394,0.394,0.394,0.394,0.395,0.395,0.395,0.395,0.395,0.395,0.396,0.396,0.396,0.396,0.396,0.396,0.397,0.397,0.397,0.397,0.397,0.397,0.397,0.398,0.398,0.398,0.399,0.399,0.399,0.399,0.4,0.4,0.4,0.401,0.401,0.401,0.401,0.402,0.402,0.402,0.402,0.403,0.403,0.403,0.404,0.404,0.404,0.404,0.405,0.405,0.406,0.406,0.406,0.406,0.407,0.407,0.407,0.407,0.408,0.408,0.408,0.409,0.409,0.409,0.409,0.41,0.41,0.41,0.41,0.411,0.411,0.412,0.412,0.412,0.412,0.413,0.413,0.413,0.413,0.414,0.414,0.414,0.415,0.415,0.415,0.416,0.416,0.417,0.417,0.417,0.418,0.418,0.419,0.419,0.419,0.42,0.42,0.42,0.421,0.421,0.421,0.421,0.422,0.422,0.422,0.423,0.423,0.423,0.423,0.423,0.424,0.424,0.425,0.425,0.425,0.425,0.425,0.425,0.425,0.425,0.425,0.425,0.425,0.425,0.425
